x	y	z
-9.368367483	-1.561697593	0.082387341
-9.41046437	-0.521534147	-0.33900707
-9.881010421	-0.528104682	0.729950772
-9.379219654	-0.838449786	-0.084478702
-9.377022348	-1.178000317	-0.519608612
-9.37836683	-1.156929403	0.170715066
-9.38428012	-1.499349103	-0.265119297
-9.925097338	-0.473747067	1.099095027
-9.367975274	-1.126480306	0.170462193
-9.362171688	-1.466375155	-0.264366341
-9.889765485	-0.441654365	1.09502713
-9.424069883	-0.410310233	0.006420839
-9.374573723	-1.090147242	-0.518894965
-9.379677561	-1.069544647	0.170552509
-9.380889292	-0.718397563	-0.42607918
-9.392622952	-0.696581048	0.259790034
-9.41647203	-0.348156082	-0.338935186
-9.922174117	-0.344176381	0.369080376
-9.409283145	-1.010820627	-0.172784803
-9.909010629	-0.316402003	0.73134856
-9.411024119	-0.637928385	-0.084622238
-9.906305432	-0.290221421	1.096236509
-9.40561926	-0.6105574	0.259983063
-9.378502234	-0.94934169	-0.172109363
-9.938943686	-0.260661809	1.099754613
-9.400464166	-0.581266687	0.259790034
-9.372416025	-0.919685605	-0.171945063
-9.381999046	-1.260545515	-0.610996959
-9.398211557	-0.552189207	0.259679765
-9.365239263	-0.889981255	-0.171762524
-9.365044251	-1.229029183	-0.60964435
-9.881326244	-0.19106822	0.367408645
-9.410156547	-0.521949561	-0.084550466
-9.344809348	-0.854843455	-0.515930468
-9.963425188	-0.529305063	0.640318181
-9.441804425	-0.150131719	0.006427646
-9.376739614	-0.486978237	-0.425219592
-9.880248207	-0.133511234	0.728920803
-9.387083939	-1.153119107	0.082040375
-9.425177915	-0.116996631	-0.339043011
-9.852246814	-0.464173157	0.992647862
-9.409067902	-0.781404366	0.170570569
-9.379030518	-1.117120958	-0.263501865
-9.919197892	-0.077495613	1.097225945
-9.381607143	-0.406923516	0.259018005
-9.391743027	-0.747331537	-0.172018094
-9.367924373	-1.083512378	-0.608678159
-9.901081491	-0.039545892	0.368077349
-9.41805475	-0.377583861	-0.084559437
-9.381712677	-0.71329338	-0.517302925
-9.932476276	-0.374981101	0.637884463
-9.449996625	-0.005288183	0.00643241
-9.400077415	-0.343709758	-0.425988701
-9.914044463	0.01811979	0.73134856
-9.43896783	0.023676431	0.006424923
-9.401087475	-0.314869106	-0.425988701
-9.874806851	-0.675361196	0.903215723
-9.38583317	-0.977961961	0.081858216
-9.434728693	0.056563823	-0.339366545
-9.942080027	0.074838206	1.099754614
-9.87041908	-0.641183597	0.540883809
-9.420979207	-0.261953616	-0.084550466
-9.379795491	-0.59747687	-0.516753907
-9.862861473	-0.613768137	0.901761726
-9.428668432	-0.579479752	0.170660885
-9.368024813	-0.912260135	-0.262581599
-10.0429676	-0.597745138	1.289167542
-9.392179494	-0.205455728	0.259128303
-9.391651737	-0.544669728	-0.171762524
-9.344322545	-0.877894503	-0.605779705
-9.903626384	0.170037152	0.730686472
-9.394139442	-0.862435494	0.081832191
-9.442317461	0.172502486	-0.33969005
-9.98214981	0.197663659	1.104372303
-9.904466081	-0.521427474	0.542358069
-9.412938156	0.196911003	0.006408587
-9.410284512	-0.141847771	-0.4262149
-9.941888871	-0.132543605	1.000658725
-9.420660987	-0.119345597	0.259872765
-9.407251798	-0.458743879	-0.171963317
-9.364932871	-0.792948974	-0.60661703
-9.91908507	-0.100418842	0.636603618
-9.417551217	0.254826283	0.006412671
-9.405983848	-0.084060039	-0.425988701
-9.890396352	-0.432904977	0.903397516
-9.391057494	-0.746060536	0.081719426
-9.424505749	0.287903544	-0.339150866
-9.885975353	-0.040801217	0.994950985
-9.421360343	-0.032635093	0.259872765
-9.411075226	-0.372142404	-0.171963317
-9.366859047	-0.706347626	-0.606294987
-9.88166768	-0.009086891	0.634169902
-9.391469028	-0.688131743	0.081684729
-9.428554485	0.345945663	-0.339366545
-10.00661675	0.38250788	1.107670468
-9.410387002	0.025144521	0.259569467
-9.412182281	-0.314356756	-0.171945063
-9.380972021	-0.649549723	-0.606939074
-9.911128321	-0.67135017	0.81234672
-9.41426467	0.054038015	0.259679765
-9.413102229	-0.285479114	-0.171945063
-9.379933922	-0.620568584	-0.606745896
-9.856301369	0.44165203	0.727817283
-9.421862894	-0.260435346	0.170281561
-9.382497713	-0.594956694	-0.262274844
-9.819442477	-0.252425716	1.258663673
-9.902129391	-0.609727675	0.811287188
-9.420752036	0.111884934	0.259872765
-9.421673575	-0.227885246	-0.172072855
-9.40846821	-0.564496879	-0.608356115
-9.970092053	-0.222036587	0.910031453
-9.825296763	0.503783211	0.365736913
-9.42553805	0.142838718	-0.084568407
-9.421756087	-0.19468947	-0.518126364
-9.851742467	0.170930818	0.991646503
-9.977317941	-0.188090301	0.545688776
-9.386569067	-0.514273674	0.081545947
-9.40562119	0.518610641	-0.338827332
-9.973071625	0.565226129	1.104921977
-9.856635728	0.20264313	0.632696891
-9.430348224	-0.144887152	0.170389937
-9.413051258	-0.48099851	-0.262944115
-9.84560419	-0.132226712	1.261714119
-9.886965542	-0.487088496	0.809494101
-9.433747432	-0.115991447	0.170444118
-9.420473823	-0.452405108	-0.263111455
-9.849931303	-0.102061308	1.262222429
-9.889408924	-0.456799403	0.80957564
-9.88020703	0.628248507	0.368040186
-9.408082078	0.2580825	-0.08443385
-9.416446036	-0.078996741	-0.517742092
-9.913548285	0.293729352	0.998155331
-9.910977969	-0.065192474	0.541975884
-9.406159672	-0.399641562	0.081667384
-9.404531153	0.634396588	-0.339043011
-9.882601605	-0.400570528	1.172744038
-9.917110998	0.688585724	0.733334944
-9.428416264	-0.029142094	0.170335742
-9.414250372	-0.365294645	-0.262832565
-9.909585178	-0.371215762	1.175805334
-9.955733922	0.721965128	0.736351297
-9.409175549	0.34282969	0.259707332
-9.421429463	0.003401748	-0.172018094
-9.406523181	-0.332972587	-0.607518789
-9.940091018	-0.336960005	0.813324773
-9.408079112	0.37169501	0.259707332
-9.425373778	0.032319983	-0.172091109
-9.396528391	-0.303757539	-0.606810268
-9.838978437	0.052590536	0.897854047
-9.840518397	0.777446671	0.366962862
-9.427992561	0.403433422	-0.08465812
-9.419545732	0.065474187	-0.51790678
-9.923779778	0.446476252	0.999757504
-9.853283175	-0.268337601	0.445532193
-9.397102061	0.774899294	0.006418116
-9.410255367	0.435880785	-0.42662206
-9.903480167	0.47601228	0.997854923
-9.873035311	-0.2385654	0.446390112
-9.405640683	0.804663191	0.006425604
-9.404882407	0.464551838	-0.4264411
-9.965893126	0.872181994	1.106571119
-9.820865136	0.503620442	0.631095732
-9.442565107	-0.198190272	0.08192761
-9.365845678	0.834164842	-0.338216265
-9.964159869	0.90284252	1.106681029
-9.821267015	0.533856377	0.631223823
-9.454126133	-0.16941704	0.082023023
-9.359262004	0.862528111	-0.338072469
-9.926193831	-0.158505356	1.177100543
-9.878360137	0.9299804	0.731937155
-9.39665015	0.544630495	0.259624601
-9.410187056	0.205521013	-0.171853793
-9.405516992	-0.130816106	-0.607132313
-9.9340715	-0.123291952	0.812428258
-9.779784036	0.954080461	0.36529113
-9.411982647	0.576475623	-0.084595326
-9.416744504	0.23884612	-0.51790678
-9.931148292	0.266425257	0.906578139
-9.882525572	-0.087154486	0.446706166
-9.372292687	0.946833344	0.00641199
-9.376712174	0.607468975	-0.425536272
-9.961229078	1.02596659	1.107670468
-9.841857176	0.656197161	0.633017088
-9.422032504	0.288939031	0.170299621
-9.432210697	-0.047494176	-0.26313932
-9.881909404	0.322167522	1.266925115
-9.901896182	-0.031750508	0.8097386
-9.874922668	1.055199485	0.369191837
-9.393310796	0.66216271	-0.084478702
-9.39818152	0.324953363	-0.517028387
-9.948356709	0.723241109	1.003863071
-9.822813148	0.357450227	0.537498503
-9.362186728	1.032943875	0.006411309
-9.387660482	0.694998039	-0.42630538
-9.887555725	0.749322738	0.997955059
-9.918904615	1.121496991	0.37108646
-9.388073994	0.719710083	-0.084469732
-9.401996459	0.382857169	-0.517357821
-9.87628331	0.778949756	0.997053837
-9.841385	0.418606261	0.538645177
-9.377524462	1.092916453	0.006426284
-9.385210617	0.752746293	-0.42639586
-9.962086415	1.180748986	1.109649461
-9.88732608	0.8117406	0.636667634
-9.450199992	0.09160997	0.081979653
-9.345772186	1.122259206	-0.338575711
-9.941680243	0.115772314	1.178866746
-9.813281814	1.197998514	0.729288682
-9.416116249	0.462367914	0.170317681
-9.435484722	0.126183486	-0.26325087
-9.890154861	0.504815603	1.268958707
-9.887846944	0.150319441	0.808679067
-9.366559752	0.831818754	0.259376467
-9.407442684	0.494499796	-0.17199984
-9.411090166	0.157858257	-0.607518789
-9.828524023	0.535519684	0.898217575
-9.928286149	1.277082861	0.37212665
-9.374934136	0.863539294	-0.084460761
-9.378070179	0.526080591	-0.516424532
-9.925578831	0.936238946	1.003362392
-9.809882122	0.568130508	0.53733471
-9.449364146	0.20759353	0.081988325
-9.327334539	1.236336555	-0.338431945
-9.869025594	0.236077212	1.170506838
-9.809150928	0.957010185	0.632504727
-9.44668369	0.236532741	0.08197098
-9.329438439	1.265752679	-0.338647624
-9.84939344	0.265844764	1.168269637
-9.870813066	1.358995175	0.735027002
-9.302936769	0.941364414	0.25791511
-9.398669954	0.609776867	-0.171963317
-9.415427592	0.273537792	-0.607969639
-9.845059165	0.65768359	0.900398568
-9.903103669	0.307735739	0.447835018
-9.333026875	1.32062175	0.006416074
-9.353975359	0.981801355	-0.42594346
-9.915350963	1.422757655	1.10800032
-9.90078086	0.695396037	0.542740255
-9.44310731	0.323433455	0.081962308
-9.331240018	1.353573414	-0.339150866
-9.936837173	0.359754435	1.178984524
-9.328653847	1.030789034	0.258880139
-9.374712086	0.694923672	-0.171634731
-9.409519195	0.36006901	-0.607776459
-9.90806931	0.394003363	0.810879671
-9.41272194	0.723148863	0.170552509
-9.438392446	0.38704121	-0.26352976
-9.933754898	0.782501268	1.276838916
-9.846072704	0.421796918	0.805907929
-9.417435662	0.752580807	0.170678945
-9.427173901	0.415555756	-0.26325087
-10.01632623	0.819933488	1.287769456
-9.842740873	0.451910822	0.805744969
-9.416078747	0.781552238	0.170697005
-9.418865473	0.444146361	-0.263055665
-9.943592144	0.844698284	1.278745431
-9.841308259	0.482105823	0.805744969
-9.411644777	0.810265163	0.170660885
-9.415461294	0.472940671	-0.262999904
-9.869812318	0.868937604	1.269594211
-9.890543859	0.514939114	0.809901618
-9.409113841	0.839135861	0.170660885
-9.409973792	0.501611849	-0.262888354
-9.823637037	0.89525278	1.264001865
-9.832194004	0.542152625	0.805255913
-9.428991842	0.525862527	0.081918931
-9.329592477	1.558581103	-0.340229233
-9.958545038	0.574887334	1.182752373
-9.866257153	1.299952135	0.638653005
-9.367936838	1.590507261	0.006467806
-9.31934305	1.239146327	-0.425762501
-9.879148553	1.697137657	1.108769934
-10.01264137	0.619010299	0.4534341
-9.384684216	0.927732157	-0.172182379
-9.354026349	0.588126466	-0.604942378
-9.886621498	0.996483669	0.906759933
-9.419761474	0.612362859	0.081884233
-9.338472085	1.648551984	-0.341091951
-9.848355083	1.388522214	1.000959133
-9.382208506	0.982012416	0.170426058
-9.383221176	0.644661036	-0.262386394
-9.901210334	0.693581063	1.176865104
-9.832138364	0.698745118	0.445532193
-9.345926908	1.010841814	-0.171634731
-9.879442188	1.084036224	1.273534316
-9.369050082	1.03879078	0.170299621
-9.38307629	0.702521832	-0.262497944
-9.893797332	0.754094303	1.176511886
-9.378732646	1.069001798	0.170534434
-9.394829136	0.732393038	-0.262888354
-9.880065256	1.149169949	0.907668666
-9.374374179	0.753976616	0.081580637
-9.308159898	1.790847547	-0.340948155
-9.86910115	0.818004927	0.809820138
-9.348657182	1.824334151	0.006483461
-9.325595489	1.473718576	-0.427572128
-9.867537565	0.848364444	0.809901618
-9.330264762	1.850477847	0.006474612
-9.339071838	1.159591077	-0.517412717
-9.889250653	0.886022781	0.448783239
-9.37020122	0.846278189	-0.262470049
-9.866116909	0.909260396	0.810227656
-9.339266355	1.559757483	-0.084945191
-9.904933272	0.938608432	1.17969096
-9.390572205	0.900451338	0.081832191
-9.333941745	1.246289387	-0.517742092
-9.825006076	0.971498669	0.446254631
-9.364999685	0.932780589	-0.262553704
-9.87716143	1.00203915	0.811857723
-9.339286408	1.64825458	-0.085079748
-9.798091426	1.019556229	1.168034198
-9.349604805	1.328086184	0.17060669
-9.368046255	0.991172174	-0.262804699
-9.849500871	1.422213761	0.908123032
-9.37918888	2.07045702	0.006537916
-9.321994074	1.708619983	-0.429200795
-9.346224635	1.386162635	0.170697005
-9.280048999	2.08253308	-0.342098435
-9.912168628	1.133900121	0.450950642
-9.354554507	1.076894068	-0.262693149
-9.88438747	1.156208133	0.813813828
-9.329051126	1.445839139	-0.172364933
-9.935118446	1.188126178	1.186402443
-9.325030306	1.823335051	-0.085241225
-9.328157688	1.479359507	-0.519279236
-9.342330625	1.502974184	0.170949893
-9.340331531	1.510681143	-0.520212467
-9.334715883	1.531143481	0.170895698
-9.34057916	1.54014203	-0.520487005
-9.323071352	1.558620757	0.170769261
-9.326947451	1.567302049	-0.519992883
-9.355030347	1.246010145	0.081866888
-9.930486199	1.342378605	1.188168648
-9.350069513	1.280374221	-0.263278765
-9.916975405	1.381778363	0.45257618
-9.308136303	2.360544972	-0.345405479
-9.863890016	1.399975516	0.814710342
-9.335110956	1.336729203	-0.26308356
-9.879275942	1.43309251	0.81634041
-9.31130661	2.063547748	-0.43191525
-9.328710539	1.394278746	-0.26313932
-9.323088891	1.768921514	-0.173259435
-9.334021723	1.447839722	0.081936283
-9.329472438	1.825788693	0.171744676
-9.309514815	1.829982017	-0.521639819
-9.275642559	2.205439625	-0.431779531
-9.338924518	1.572059114	-0.264199031
-9.77285762	2.436975409	1.013676381
-9.393992405	2.018630197	0.173587115
-9.327170005	1.682151322	0.082213854
-9.291771118	2.060132805	-0.173770574
-9.308818196	2.093895863	-0.174208698
-9.306806404	1.796672986	0.082222527
-9.279504212	2.207277789	-0.174153937
-9.860146605	2.017833214	1.193349483
-9.282471695	2.663706123	-0.43734416
-9.308502107	2.011203484	-0.265677018
-10.01124911	2.630195871	0.944564299
-9.934934507	2.35793852	0.83500477
-9.906217197	2.479919897	0.835086249
-9.251444112	3.090525219	-0.441732552
-9.298939473	0.636990421	0.173768377
-9.238985517	0.645622432	-0.169636254
-12.42866438	-9.132099588	1.705977481
-12.39115112	-9.747318326	1.438656644
-12.20943649	-9.661910059	1.846129896
-12.82542184	-8.996072349	2.007405299
-17.23718672	-9.317718903	3.636559765
-17.18285933	-9.022482595	4.148235134
-17.15103891	-9.210306454	3.96356093
-17.25717272	-7.493595462	4.218170087
-17.34755884	-9.521640788	3.834739945
-17.25194847	-6.931719537	4.168508453
-17.23969581	-7.553482033	4.023031524
-17.27518202	-8.937408823	3.769105932
-17.31027606	-8.754551564	3.759022972
-17.25136071	-6.99745657	3.979137233
-17.25268487	-6.933632703	3.26320326
-17.17966221	-5.764941254	4.06284086
-17.23508407	-7.054483617	3.791587938
-17.30838569	-6.169164151	3.927508883
-17.28984359	-6.708046069	3.775827039
-17.3186792	-5.639003882	3.893020442
-17.26769051	-6.037407488	3.724354854
-17.24800783	-5.617866084	3.693231932
-17.12658827	-5.706948963	4.197604723
-12.11877106	-6.031702514	2.512326519
-12.08269801	-5.875620969	2.493531504
-12.05071898	-5.678290724	2.472364228
-12.13884338	-6.182973013	2.390791533
-12.17581467	-5.510611521	2.480393212
-12.03270435	-5.852510875	2.348268625
-12.52620083	-5.858805787	2.955769114
-12.14781794	-6.140313301	2.254833743
-12.15894416	-5.459274061	2.339107153
-12.75297495	-5.124837028	1.520284693
-12.10240492	-5.840209087	2.22607021
-12.13504323	-5.722748391	2.731619228
-12.11239079	-5.662841439	2.214957044
-12.13436097	-5.582641949	2.212668941
-12.11942058	-6.071309843	2.114191855
-12.22401561	-4.438632799	2.413607159
-12.08954444	-4.347871333	2.384410899
-12.10375335	-4.311090689	2.384593527
-12.11944408	-5.840512103	2.098318899
-12.20982158	-4.222645983	2.397731584
-12.14139573	-5.713994686	2.092925156
-12.20370209	-5.663241071	2.607098122
-12.38295423	-4.113095808	2.421635907
-12.3992517	-4.076314014	2.422365945
-12.26182902	-5.542548068	2.098781194
-12.36020178	-4.448286731	2.807782223
-12.10368954	-4.8209028	2.158247039
-12.33692236	-4.312074118	2.793359806
-12.36124786	-4.19138711	2.290707227
-12.35962615	-4.106454932	2.285694239
-12.44265881	-4.049438557	2.296411392
-12.14249143	-4.367691242	2.137654827
-11.98696926	-4.734908695	2.497517844
-12.20076997	-4.220290159	2.138635443
-12.19045353	-4.600394485	2.524912854
-12.32922074	-4.55601644	2.050083483
-12.20693465	-4.393909174	2.5140691
-12.28955062	-4.328286053	2.032207096
-6.395951724	-2.407070531	2.088811073
-6.545534475	-2.349385772	2.125641499
-6.458669241	-2.461273913	2.031092868
-6.413767533	-2.58770943	1.958236812
-7.292889207	-2.24467866	2.332301054
-6.78896659	-2.021363202	2.165102633
-6.241158469	-1.795891377	1.985042959
-6.283717744	-2.584879111	1.853951917
-6.422042537	-2.61877298	1.892384038
-6.386219556	-2.581343014	1.879485593
-5.633165318	-1.548356917	1.541364135
-6.633764501	-2.066854281	0.957851614
-6.643861056	-2.047659542	0.95839789
-5.487639651	-1.434221478	1.733660609
-5.504051905	-1.420485616	1.737460527
-7.36964204	-2.484790727	2.202062844
-7.369928939	-2.459732399	2.199883458
-7.393885892	-2.442542791	2.204787252
-7.414148171	-2.424033247	2.208601235
-5.432239338	-1.313416121	1.708230051
-6.091897361	-1.476961311	1.405400436
-8.090694376	-1.932764198	2.194696368
-5.437676651	-1.498975981	1.657522901
-5.470947151	-1.490102531	1.666262972
-5.62973262	-1.288253126	1.765229496
-6.76079997	-1.551546532	1.287366551
-5.911948553	-1.569878733	1.307427813
-5.957176512	-1.326842104	1.610243266
-5.535257522	-1.43489098	1.680359946
-6.753805868	-1.748130738	1.224349493
-5.643757176	-1.222488784	1.294701022
-5.538376895	-1.399490019	1.678668367
-6.543413858	-1.396359624	1.241747657
-6.370919638	-1.589087201	1.661237769
-5.79846078	-1.196437337	1.809659869
-6.074688847	-1.493955802	1.337108782
-7.129058383	-2.019987317	2.097994088
-6.624390686	-1.350016508	1.254703443
-6.657434034	-1.333436012	1.791370216
-6.905535329	-1.652399981	1.246129509
-6.211630075	-1.468628209	1.614880976
-6.597399691	-1.815898843	1.133545444
-6.120749741	-1.427327716	1.590108447
-6.84743427	-1.59414075	1.233856556
-7.474846335	-1.425729972	2.007702055
-6.668465174	-1.273973943	1.259995262
-5.585313617	-1.490411082	1.636767743
-6.669443344	-1.252964765	1.259447852
-5.597303193	-1.475230288	1.638947246
-6.919494941	-1.543920793	1.244228003
-6.27078919	-1.136359456	1.681418481
-6.704705171	-1.735250027	1.147273468
-5.910760946	-1.283092023	1.530261689
-6.93461339	-1.50268607	1.24526524
-5.930785687	-1.268398821	1.534431273
-6.663704134	-1.422591884	1.195827958
-6.90136175	-1.185130665	1.84749395
-6.217267441	-1.549911915	1.304561606
-6.903058563	-1.163630646	1.846983736
-6.230556729	-1.532937326	1.306357136
-5.751917336	-0.949487486	1.7818909
-8.328431794	-2.025243974	2.080386517
-6.711258373	-1.368283978	1.202050802
-7.19270639	-1.731422283	2.094724892
-5.814425932	-0.945240164	1.320735136
-6.738918099	-1.873261807	1.090922322
-5.979025758	-1.183109683	1.542034799
-6.959341695	-1.642541772	1.184535429
-5.59176459	-1.532789306	1.582031952
-6.449774226	-1.254191058	1.404413632
-6.23054053	-1.1931993	1.864184605
-5.99838274	-1.380904455	1.494010088
-6.295447623	-0.964389614	0.940816024
-6.281107751	-0.95232176	-0.228508954
-5.63368298	-1.507176416	1.591245161
-6.392957357	-1.202480785	1.390409163
-6.294463374	-0.944483724	0.940231482
-6.28301123	-0.932900323	-0.228473013
-7.806849616	-2.062918225	2.203262553
-5.871578822	-1.085771808	1.276283672
-6.987674198	-1.827419176	1.126521076
-6.296450733	-0.91785491	0.004331156
-5.980478089	-1.323649993	1.734298228
-5.911005352	-0.849577511	1.338893334
-6.996117626	-1.806713792	1.12698337
-6.295277356	-0.89796852	0.004328434
-5.985450891	-1.305500954	1.734570622
-5.917464245	-1.517829586	1.420490808
-6.520427793	-0.916759919	1.222040218
-6.277376394	-0.88012947	0.467604027
-5.648026647	-0.772823489	1.742429766
-6.034062588	-1.291986932	1.497784014
-6.705493044	-1.431344787	1.135833429
-5.697402403	-0.982745826	1.698968039
-5.902133772	-0.792929365	1.335174125
-7.078614012	-1.758685362	1.137616719
-6.488289608	-1.098678823	1.664916809
-6.644620121	-1.634519444	1.325997849
-7.999056289	-1.956926651	2.246959195
-6.066585824	-0.777157643	1.371271769
-5.995883631	-0.74558479	1.846782597
-6.136100663	-1.000351266	1.572939214
-6.11323103	-0.764077622	1.143393199
-7.950850457	-1.893504507	2.230112301
-5.874612811	-0.715955602	1.326860709
-7.065039906	-1.663535029	1.132068956
-6.564879678	-0.777672767	1.744175139
-5.827821371	-0.912065414	1.260816029
-7.085509511	-1.645427983	1.134534564
-6.280006931	-1.454930802	1.758924711
-5.854662365	-0.677093632	1.321391386
-6.302018411	-0.965579078	1.118906376
-6.287478434	-0.954929451	0.175417558
-5.625162968	-0.846326651	1.671619878
-5.816619265	-1.096873478	1.436693306
-6.706134473	-1.519312104	1.332466027
-6.290218965	-0.938978282	0.408156419
-6.244293709	-0.679384606	1.919858846
-5.661580802	-0.834051314	1.447849686
-6.549203168	-1.211742961	1.356033794
-6.287975479	-0.919827923	0.639568423
-6.274533858	-0.906343587	-0.520657591
-6.44220028	-0.683085485	1.709225359
-6.602274626	-0.950417228	1.425733854
-6.320886092	-0.906870353	0.880283975
-6.288583613	-0.891708768	-0.287641909
-6.254978096	-1.368477462	1.747079239
-5.923679401	-0.611509445	1.335174126
-6.578686111	-0.925492443	1.165923592
-6.255489803	-0.870340564	-0.056660026
-5.823346927	-1.028810986	1.67436337
-5.678043172	-1.217377101	1.350281543
-6.227300093	-0.841085581	-0.516073934
-6.36833326	-0.616036914	1.688051287
-6.053466757	-0.814618364	1.305546573
-5.701617626	-0.750784048	1.689945924
-6.598476363	-1.118951169	1.624446985
-5.894940589	-0.55375864	1.098869126
-6.303622167	-0.570759294	1.669938626
-5.865701489	-0.973976295	1.210594882
-5.77412261	-1.170764417	1.607565627
-5.887988674	-0.73724283	1.268340876
-5.718748563	-0.920106384	1.64003694
-6.314187797	-1.252780488	1.496815032
-6.646891982	-0.792402672	1.967092501
-6.08561535	-0.955308067	1.495189424
-6.269371483	-0.980117879	1.051177071
-6.237190019	-0.962043121	-0.115226378
-5.834588337	-0.902052671	1.671638965
-5.83624	-0.676266316	1.255799583
-6.288080312	-0.957561326	0.580424503
-6.276196217	-0.941746202	-0.581035296
-6.45048034	-0.484426727	1.706674281
-6.281121672	-0.944191255	1.293189874
-6.271488935	-0.933119323	0.346720396
-6.318485749	-0.452918163	1.936227949
-6.561513413	-0.721040078	1.670067603
-6.121347438	-1.132318116	1.206334611
-6.267405608	-0.91286686	0.346338182
-6.100406385	-0.418478032	1.868997842
-6.534775355	-0.697818073	1.662709409
-6.422290855	-1.167620125	1.264929555
-6.259302985	-0.892084655	0.345737575
-6.793514108	-0.44508811	2.080918938
-6.39320721	-0.662869355	1.626163656
-6.457735092	-1.153608598	1.271207592
-6.074225317	-0.379250965	1.860228688
-6.385564911	-0.642281923	1.623710925
-6.059131465	-0.35965042	1.855259451
-6.360488423	-0.620054546	1.616843159
-6.03538103	-0.339662436	1.847659501
-6.30445083	-0.595071839	1.602126771
-5.982150598	-1.011925798	1.175705336
-5.524911083	-0.927362935	1.528595671
-5.941644906	-0.986333322	1.167144437
-6.309779209	-0.318376843	1.666877333
-5.942705046	-0.967784435	1.166763921
-6.407308813	-0.303593514	1.69238812
-5.937890489	-0.948309278	1.165241976
-6.195333887	-0.508151685	1.572693999
-6.279417805	-0.978278462	0.991215196
-6.278998975	-0.963738105	-0.177220268
-6.504118505	-0.761666865	1.854168053
-5.857758217	-0.679342529	1.200619571
-6.290124502	-0.950305807	0.287539174
-5.751051017	-0.217559377	1.759091168
-6.649212526	-0.752931589	1.62421107
-6.301820911	-0.93882685	0.755454364
-6.270540459	-0.920970071	-0.40907037
-5.437036678	-0.810015094	1.499903188
-6.298909789	-0.922016909	0.992910469
-6.278698615	-0.904623958	-0.176969287
-6.188467432	-0.667023904	1.762358662
-6.017814976	-0.866630888	1.178178569
-6.273208475	-0.888104653	0.05495959
-6.979008558	-0.730579393	1.986842152
-6.915783453	-0.974300301	1.353392859
-5.499678838	-0.767675017	1.51517068
-6.45958396	-0.390392555	1.901682603
-5.764783147	-0.776102978	1.127193233
-5.699320168	-0.539321465	1.389518973
-6.284623326	-0.341129661	1.849523768
-6.072130486	-0.080568382	1.856136355
-5.936468759	-0.747759687	1.391274757
-5.84877028	-0.725124324	1.608092056
-6.185900013	-0.278695807	1.819638119
-5.752613287	-0.684799292	1.122627398
-6.256830485	-0.027502091	1.650805537
-6.233837366	-0.479017809	1.77025914
-5.963631039	0.012356858	1.822813661
-5.809765212	-0.641432903	1.359114355
-6.3512287	-0.688674425	1.743130788
-6.170267435	-0.18320673	1.813999401
-5.836656367	-0.604160349	1.137085935
-6.065078661	0.066380722	1.600294056
-6.076317982	-0.143106832	1.786087381
-5.843184592	-0.568621179	1.137656707
-5.581354523	-0.529694214	1.303626483
-5.997507745	0.120855275	1.582691614
-6.269401561	-0.543874413	1.717070684
-6.268774403	-0.505085979	1.71601771
-6.154712131	-0.226641046	1.743833302
-6.208331436	0.025233502	1.570731812
-5.99613926	0.061164887	1.762122499
-6.290489865	-0.390449472	1.719702948
-6.027260237	0.098471781	1.525110896
-5.864487145	0.131810152	1.723778711
-6.164192967	-0.075599385	1.745467899
-6.339104486	-0.295936898	1.731548417
-7.326596683	0.254658145	2.154300438
-7.271571956	0.089299595	2.05903649
-7.400744949	0.181738674	2.096087213
-6.04969713	-0.040938737	1.650735842
-6.025716089	-0.003802502	1.644155012
-7.356870596	0.243723151	2.008469807
-8.162751363	-2.832705341	-0.626771877
-8.050547241	-2.688222761	-0.305289706
-7.962066045	-2.581156934	0.005697278
-7.976082281	-2.534941779	0.311127138
-8.091989052	-2.537489989	-0.305038084
-8.161318528	-2.514155983	0.629970596
-8.097410694	-2.464514168	0.314656359
-8.020446093	-2.41102301	0.005700681
-8.101218915	-2.404535788	-0.303959688
-8.084978375	-2.37642927	0.005736076
-8.22875235	-2.394557805	0.318594199
-8.177656667	-2.368082418	-0.617583344
-7.997530558	-2.616492163	-0.07548989
-8.023779337	-2.278424695	0.005677538
-7.965820635	-2.552116177	-0.075041343
-8.069103483	-2.537217544	0.542842235
-7.966644145	-2.47359442	0.23009424
-7.97837614	-2.448596881	-0.074870896
-8.133014895	-2.464749908	-0.384864684
-8.112788318	-2.431469348	-0.383552697
-8.088602483	-2.397200707	-0.38205975
-8.090166255	-2.370688455	-0.38178831
-8.034526078	-2.651031749	-0.154474912
-8.126864266	-2.331381886	-0.075848725
-8.131691845	-2.307629845	0.233154819
-8.200661217	-2.64605449	-0.473768855
-8.135823372	-2.926064423	-0.558051642
-8.118440488	-2.891714631	-0.556248126
-8.147977801	-2.874097049	-0.557665166
-8.196265207	-2.534013259	-0.471682752
-8.050405982	-2.465880476	-0.153726456
-8.018752958	-2.43266265	0.15138747
-8.113957047	-2.438090918	0.463294893
-8.216657056	-2.785426436	-0.559983906
-8.092892618	-2.397646387	-0.154109804
-8.074381914	-2.368607434	0.152019681
-8.288521754	-2.753203023	-0.563719746
-8.038496039	-2.645750914	-0.236089182
-8.108947099	-2.324805889	0.152399005
-8.274892989	-2.692413359	-0.561658618
-8.115931418	-2.613184138	-0.550322351
-7.996768567	-2.529976562	0.379110982
-7.988285918	-2.500358132	0.378343394
-7.981115475	-2.470338898	0.072472757
-8.08389751	-2.469600935	-0.235810322
-8.087608998	-2.4436317	-0.235698772
-8.098898781	-2.419952639	-0.235810322
-8.11491251	-2.397643223	-0.236061302
-8.122230084	-2.372735683	-0.236061302
-8.114635146	-2.327452066	0.690335774
-28.11806818	-10.37896605	2.735092596
-28.15415058	-9.614022484	2.714827255
-13.5964536	-4.012155696	3.178340119
-13.68128598	-3.94169869	3.756469193
-13.64090821	-3.843945574	3.177465121
-13.63352818	-3.796756042	2.6265562
-13.66121758	-3.760112525	2.093089085
-13.65000022	-3.712012828	1.564701478
-13.65299493	-3.622241902	3.166963974
-13.57560725	-4.007195394	2.484134553
-13.59067353	-3.966354814	2.484653349
-13.52136379	-3.366187131	3.124084393
-13.60801305	-3.914576342	0.90872922
-13.65011625	-3.354558533	1.55480663
-13.67029319	-3.848524276	1.957764649
-13.64686268	-3.801656668	2.486209031
-13.58288755	-3.772341718	0.904694403
-13.64111433	-3.750129711	1.95025363
-13.56610668	-3.69164645	3.005098155
-13.66882635	-3.677921121	3.581239039
-13.63226261	-3.62326836	3.568730169
-11.97402757	-2.704462	0.905559765
-12.42416792	-2.731800937	1.879147748
-13.67160716	-3.499329539	3.570447022
-13.48010552	-2.920651571	1.52567188
-13.57178578	-3.964345272	2.878654114
-13.62402957	-3.939692339	3.442308543
-13.65126487	-3.930533672	1.820315259
-13.07403644	-2.738550527	0.496577513
-13.10579748	-2.713513653	1.977058034
-13.61786687	-3.870319725	1.291892008
-13.53790987	-3.819576036	2.863890759
-13.53440991	-2.758980823	1.527870696
-13.63912092	-3.808383507	3.437119363
-13.66010454	-3.797285971	1.816756387
-13.63584553	-3.251550572	0.899634863
-13.66594582	-2.698564738	2.057724456
-13.6018707	-2.679745991	1.022681461
-13.65821716	-3.17497451	1.933046723
-13.64025136	-3.691279025	0.772722392
-13.63265776	-2.605184758	1.535236876
-12.07737504	-2.735476307	2.646835853
-13.60537398	-2.550585356	1.021136509
-13.47897095	-3.002819906	1.903685714
-13.58740414	-3.520362367	2.85770618
-12.17489392	-2.669111907	1.254403209
-13.68482595	-4.052485294	3.318630761
-13.69674666	-2.443608397	2.055240136
-13.49670003	-2.913551578	0.886121477
-13.69597366	-2.399398845	2.580572407
-13.22261411	-2.813885243	1.360547398
-13.58919444	-2.370915099	0.512811851
-13.6841841	-2.354823134	2.051148395
-13.01694641	-2.728400273	1.338517404
-13.59443474	-2.328875387	0.512737525
-13.68744258	-2.312170363	2.050563794
-13.11100562	-2.70615111	1.347329354
-13.6314137	-3.856851642	0.640325536
-13.68959236	-2.269358084	2.049833278
-13.47416353	-2.738035884	1.383778906
-13.66723416	-3.821738355	0.641454388
-13.69160714	-2.226554375	2.049102524
-13.54591714	-2.709369057	1.390287733
-13.64615595	-3.770743667	0.639919152
-13.66125856	-2.177886237	2.567434113
-13.6895851	-3.752471031	1.683052542
-13.59700115	-2.674257278	0.889323677
-13.6704803	-2.656312605	2.44403183
-12.06939002	-2.798227945	1.130587296
-13.59709724	-3.6561391	2.728473447
-13.63283406	-2.596494955	1.396696425
-12.11433889	-2.741764533	2.057574556
-13.55835213	-3.024882283	2.301247642
-13.60131355	-2.502144106	0.887530412
-13.6942305	-2.482244621	1.91857102
-12.20126038	-2.666998017	0.682957261
-13.60685242	-2.418903141	1.390888547
-13.6902659	-1.882012547	2.564697067
-13.62783412	-1.874156986	1.521603983
-13.65129291	-2.381657382	0.889323677
-13.67583567	-2.353785866	2.435388918
-13.62760942	-1.831544195	1.520944279
-12.98766006	-2.713891895	0.725546567
-13.07375257	-2.706938303	2.211688326
-13.61087828	-2.290594393	1.389086103
-13.67738982	-2.267733957	2.433141824
-13.68434112	-3.303283653	1.66915858
-13.63718832	-2.250064917	0.887018109
-13.65997761	-2.221808343	2.428820248
-13.6143008	-1.702341743	1.517645996
-13.56718455	-1.686109943	0.50824244
-13.60240366	-2.678679659	1.776465912
-13.60275808	-1.652506072	1.010836944
-13.59497668	-2.633916815	1.774432438
-13.63450465	-1.613930846	1.012823211
-13.69555754	-2.609834666	1.786506791
-13.62155868	-1.570037737	1.011499033
-13.67131629	-1.539328117	2.032297114
-13.62234701	-1.527795363	1.011204706
-13.6710572	-1.496839496	2.031566361
-12.13542455	-2.687782737	1.01643189
-13.67788776	-2.483628059	2.302882001
-13.59292252	-1.446096133	1.512038986
-13.59989617	-1.436516639	0.508391034
-13.63091022	-1.407858689	1.515777032
-13.6104742	-2.410879091	0.755850463
-13.67537747	-2.396590083	2.299940154
-13.02138681	-2.765183176	1.578376891
-13.60732111	-1.357246793	1.008777008
-13.67608865	-1.838454655	2.42173302
-13.58485828	-2.330468732	1.766170878
-13.02022406	-2.716575846	1.087665999
-13.58469046	-1.308602757	0.507350874
-13.67271127	-1.285108718	2.02864359
-13.61873582	-2.288158955	1.260176376
-13.65855749	-1.240795271	2.545354644
-13.67137448	-1.747880076	1.899998569
-13.62962211	-2.247014376	1.260539845
-13.59544931	-1.225493153	0.507462275
-13.67914449	-2.737319817	2.175834503
-13.60832715	-1.194867427	1.511049549
-13.59524028	-1.68950629	0.879204656
-13.6649338	-1.156881714	2.545172017
-13.66020759	-1.661330034	1.896994138
-13.64823543	-2.673263376	1.137301766
-13.70413764	-1.117866434	3.082736174
-13.66327272	-1.619180127	1.896721029
-13.59421369	-1.103645398	1.006128535
-13.66393421	-1.072397974	2.543712181
-13.61336155	-2.586692923	1.643019082
-13.61021434	-1.564307516	0.879204656
-13.69228257	-2.5656101	2.172752465
-13.6127358	-1.524221604	1.378571843
-13.51399119	-1.009436361	0.50378449
-13.65199246	-1.490562602	1.893170381
-13.5709696	-0.976119776	1.003700719
-13.59377541	-0.941092786	2.528931659
-13.57942861	-0.940814004	1.505662362
-13.6468633	-2.448881234	0.626689067
-13.58748718	-0.899495127	2.011545876
-13.62049855	-1.903442241	1.254996375
-13.60553176	-0.858058617	3.056483428
-13.6906158	-2.39178042	2.167666996
-13.62744528	-1.356761835	1.378271436
-13.57796379	-2.350614844	0.622851004
-13.66326346	-1.836396736	2.283760595
-13.64790107	-2.33383609	1.641723874
-13.61137106	-1.812253478	0.750881701
-13.6816501	-2.303793798	2.163968409
-13.62263476	-1.27191742	1.37696967
-13.58621923	-2.26627163	0.622580101
-13.67035981	-1.752024353	2.283107087
-13.62375057	-2.243756697	1.637131813
-13.6053951	-1.726564518	0.749953478
-13.60388488	-0.690467207	2.528019467
-13.66999741	-1.196104996	1.891668225
-13.66965485	-2.201409063	1.132248484
-13.48161403	-0.642800004	3.026073855
-13.70227425	-2.17777367	2.163968409
-13.62979847	-1.146150645	1.376569127
-13.61141002	-0.60309383	3.594730559
-13.67610948	-1.624967549	2.281472728
-13.57614529	-1.600836239	1.247453765
-13.68754299	-1.077285604	2.934658101
-13.67252614	-1.069621011	1.890575672
-13.59976566	-1.556523359	0.748533874
-13.64407126	-1.029839464	2.401335833
-13.58222244	-1.01635053	1.370761251
-13.61488642	-0.990654728	3.453696781
-13.67969818	-1.497845946	2.279675051
-13.6299056	-1.480117396	1.251088814
-13.5454777	-0.437723534	3.038543861
-13.54879814	-0.438541001	2.002485494
-13.55526323	-0.928829262	0.871967579
-13.58361676	-0.901530737	2.909784606
-13.51448236	-0.395928882	1.997224787
-13.62493082	-1.895001154	1.124913179
-13.53522806	-0.354269881	3.035700003
-13.66149167	-1.368730738	2.274445103
-13.60375678	-1.85630246	1.62794769
-13.55645595	-0.309185133	3.577638095
-13.59417118	-0.314080931	2.523639957
-13.5732111	-0.810802936	1.874461317
-13.60507829	-0.806510855	0.874657477
-13.56153636	-0.271701263	3.041169325
-13.67193981	-1.787505227	2.150560942
-13.62621577	-1.26856357	1.248816922
-13.57660505	-0.736938777	3.439961487
-13.53095973	-0.229561975	2.511596482
-13.55122216	-0.726072929	1.870774055
-13.60701619	-1.219892297	0.747059612
-13.52162203	-0.689279132	2.893899013
-13.67970871	-1.703215933	2.150098648
-13.63374297	-1.184930728	1.248816922
-13.57990301	-0.65357383	3.439716155
-13.56104912	-0.64768466	2.382667418
-13.62599008	-1.147177639	1.752190012
-13.59971638	-1.629710505	0.619103243
-13.66887929	-1.119373236	2.792268624
-13.55745875	-0.105920211	2.002777795
-13.60011914	-1.594668946	1.119778477
-13.53190846	-0.063495003	3.033949773
-13.66609641	-1.073347655	2.27084975
-13.64541538	-1.564311735	1.628536347
-13.54271923	-0.526901711	3.428924137
-13.5269905	-0.021971193	2.510501665
-13.54789615	-0.517630875	1.86899879
-13.50961389	-1.002529966	0.740780441
-13.5530818	-0.482587419	2.898706486
-13.68359839	-1.490932152	2.146862591
-13.55098247	-0.96856073	1.239729242
-13.54085336	-0.443636511	3.427697715
-13.52588745	0.061024836	2.510319274
-13.5359661	-0.434016582	1.866950299
-13.58933237	-1.417386496	0.617568006
-13.5088688	-0.398035725	2.888673357
-13.67872856	-1.405529204	2.144704904
-13.58169032	-1.374481315	0.6170262
-13.55401653	-0.357750334	2.898079444
-13.5135859	0.143185046	1.996347884
-13.50679997	0.153251103	0.502149892
-13.56749922	-0.818215083	2.767330516
-13.54473652	0.185075975	2.001024225
-13.50681864	-0.302539872	0.867036188
-13.57858891	-0.782074589	3.301257488
-13.5412651	-0.272388632	2.376963017
-13.64718613	-1.268263439	1.625121716
-13.58968372	-0.236637913	3.438735063
-13.55465224	-0.73399732	2.763739456
-13.50477277	0.267417609	1.995324832
-13.52997174	-0.706189955	3.836106298
-13.51289469	0.309762298	3.030449311
-13.55646933	-0.189488593	2.379382966
-13.63195619	-1.182528154	1.622413637
-13.57820335	-0.666942993	3.849183079
-13.55870207	0.352434873	3.040950457
-13.53827426	-0.147692905	2.376098749
-13.52621629	-0.638597383	1.735158701
-13.52030403	0.401450403	4.134361177
-13.67931343	-1.129031003	3.191574641
-13.5419375	0.393576744	2.514333765
-13.5623527	-0.101845406	1.869681621
-13.52378819	0.443084815	4.135822685
-13.52995199	0.434776686	3.035043636
-13.55862429	-0.064714857	2.379555819
-13.5754686	-0.557462075	1.74100532
-13.53574519	0.48505258	4.139914902
-13.69957954	-1.046113256	3.194745368
-13.54102944	-0.023087052	2.376444455
-13.4750239	-0.511931946	1.727914113
-13.56342968	0.523210314	3.581209603
-13.57339573	0.01660525	2.90121465
-13.55859154	-0.480562286	2.247479484
-13.57755807	-0.961558469	1.113095128
-13.57528643	0.565383204	3.584781116
-13.57218509	-0.442914203	2.764736999
-13.59711984	-0.934856501	2.125749911
-13.53478142	-0.405094296	3.286633371
-13.59164684	-0.902838079	2.63962986
-13.53565032	0.600602555	2.001462677
-13.56480048	0.648345794	3.582995359
-13.54917966	-0.35895376	2.759549729
-13.580905	-0.85005067	2.122359597
-13.47120807	-0.330589315	3.815401552
-13.55945863	0.182998888	2.898497394
-13.55557719	-0.31395858	2.246171996
-13.59331546	-0.281653821	3.300078031
-13.59350015	-0.777369344	2.638488313
-13.53152574	0.725261846	2.001754743
-13.56199123	0.266271502	2.899333527
-13.55626181	-0.230760411	2.246008442
-13.5760851	0.82049415	4.157160673
-13.57186461	0.308122006	2.901632599
-13.58255426	-0.189527187	2.250257775
-13.52611669	-0.659274578	0.612104406
-13.56401247	0.349582073	2.900169661
-13.52585459	-0.147232782	2.24077873
-13.55007649	-0.114435984	3.288992045
-13.5519976	-0.608252698	2.628785869
-13.52456763	0.891455034	2.002193193
-13.54509994	-0.575545387	3.152393408
-13.49193451	0.931594943	2.509954256
-13.5774105	0.439711719	1.872685934
-13.56432008	-0.534677453	3.156470125
-13.54785264	0.977227466	2.520902912
-13.5512476	0.480486985	1.869271899
-13.57040317	0.513368941	3.435791785
-13.5451056	0.01524085	2.757754198
-13.53106226	-0.472404274	2.11172613
-13.48527382	1.064451929	4.13465348
-13.53588359	0.05179713	3.285454149
-13.58787735	-0.442862455	2.634493132
-13.49584322	1.056043286	1.999708872
-13.52535182	0.594794289	3.425245101
-13.53299867	0.098266389	2.755360236
-13.58111362	-0.390734278	2.119123305
-13.66038356	0.125843914	3.867980953
-13.55622861	-0.367812271	3.153299396
-13.47997596	1.138771983	2.510684292
-13.53443573	0.646272945	1.867906238
-13.49108023	-0.324627347	3.137898513
-13.51103245	0.682215613	2.37419736
-13.51830069	0.201410843	0.73930618
-13.59718261	-0.285443596	3.162358588
-13.53638177	1.227232524	2.522545139
-13.52922631	0.729253211	1.867769743
-13.51291186	1.27095901	3.580954495
-13.58791338	0.76780813	2.908948473
-13.56346102	0.268520524	2.24731593
-13.49295339	-0.2155123	3.68210696
-13.54644604	0.807165044	2.900587609
-13.5142449	0.309026276	2.239307926
-13.5850102	0.848202545	3.999877199
-13.52731418	0.847681411	2.897034219
-13.57142017	0.351995104	2.248950288
-13.52372509	1.397660271	3.587077321
-13.52660106	0.889306986	2.897452403
-13.5377336	0.392686026	2.243557022
-13.58437734	-0.076751982	3.158734865
-13.52574192	1.43576337	2.524369758
-13.49865909	0.935462244	1.865311528
-13.50821021	0.971376038	2.894734912
-13.53704078	0.475813907	2.243883893
-13.49875913	1.520771257	3.584015792
-13.5008366	0.015750671	2.616229792
-13.48103637	1.514009358	2.003946763
-13.52895768	0.539979349	3.833654402
-13.50574662	1.559473364	3.048170011
-13.55381968	1.060193068	2.385951634
-13.53289544	0.088249073	0.611698022
-13.55118081	0.089735716	3.151034423
-13.59693075	1.612288217	2.541157526
-13.48813806	1.101202386	1.865584755
-13.54059005	0.633865438	3.2901715
-13.51091903	0.14012039	2.618322394
-13.46260316	1.637543535	2.003362397
-13.51015952	0.15727617	3.686582075
-13.5073083	1.179828519	2.898079446
-13.54489987	0.684251552	2.246662186
-13.55013826	0.707464865	3.84182739
-13.59302833	1.738835535	3.072453896
-13.53782741	1.226261725	2.385605928
-13.52879502	0.254274327	0.61160772
-13.48868079	0.254881895	3.136992758
-13.55272415	1.775956095	2.536778251
-13.50023855	1.269142986	1.869271899
-13.55895515	0.801587393	3.296775934
-13.56510803	0.307198765	2.629356643
-13.47875191	1.8076238	2.008915404
-13.52746594	0.323539182	3.692109812
-13.44218549	1.340545917	2.887419275
-13.49609916	0.847942305	2.240124988
-13.53659628	0.87344477	3.840737817
-13.54633386	0.889268645	2.763938777
-13.49587466	0.398632691	2.105870093
-13.55294175	0.926479322	3.297247526
-13.55679934	0.431879385	2.628405352
-13.57905258	1.948463614	2.026451568
-13.50768126	1.985352172	3.602128687
-13.52552037	1.474701176	2.908112338
-13.57333067	0.978291342	2.254343317
-13.3970968	1.970292968	0.998918758
-13.68033594	2.053625936	3.649833862
-13.58507244	1.523382405	2.921907714
-13.56928228	1.019855246	2.25418
-13.66811841	2.053011449	1.019591556
-13.53826296	0.531683162	3.69684814
-13.89253716	2.12486448	3.150993506
-13.46941028	1.554175905	2.379555819
-13.81454958	2.118365039	1.030994759
-13.86904554	2.169052341	3.703661624
-13.50554845	1.598434717	2.906858257
-13.54605294	1.101735965	2.251401709
-13.80367433	2.164505747	0.51942445
-13.56715611	1.136777013	3.304559586
-13.57996083	0.641260941	2.634493133
-13.88266636	2.20986782	2.076575974
-13.50552819	1.6794123	3.999313103
-13.56554046	1.17856334	3.305031414
-13.56616314	0.682328853	2.632210274
-13.87582067	2.252448837	2.076575973
-13.55095111	0.698821795	3.702375876
-13.52615531	1.727251968	2.914592077
-13.54418118	1.227165066	2.252872512
-13.79992704	2.29424586	0.520055962
-13.56289215	1.262228028	3.306210635
-13.56368215	0.765667115	2.632590791
-13.86661663	2.33836948	2.07730649
-13.84586049	2.388282582	4.294544132
-13.55043999	0.797375843	3.156243629
-13.89071406	2.38703276	2.615790169
-13.51744269	1.816985518	1.880196953
-13.48200085	1.844759362	3.998749478
-13.87061722	2.42741382	3.157119195
-13.47976796	1.84948715	2.387853023
-13.7933783	2.419355358	1.033054696
-13.49528121	1.888772527	4.00438808
-13.87367173	2.471839371	3.159525555
-13.50524282	1.895213904	2.393384571
-13.52652596	1.400276294	1.742530483
-13.49111058	1.911241578	0.375843585
-13.6015372	1.946208587	3.47626191
-13.59365123	1.438593476	2.783091416
-13.56781458	0.943288536	2.121280754
-13.7753302	2.503409594	1.032834039
-13.5105235	1.456455215	3.847548483
-13.8783953	2.560638269	3.164119881
-13.54598473	1.985759263	2.402718897
-13.79572247	2.544637737	1.551728171
-13.56713774	2.007004645	0.378297538
-13.83779511	2.601322144	3.71488637
-13.69485034	2.048564635	2.959740689
-13.48725476	1.51464807	2.248296544
-13.78358691	2.072907806	1.402804708
-13.90358822	2.120191356	4.132952438
-13.56939766	1.049438874	3.164623326
-13.87339716	2.647840788	2.621264499
-13.89689085	2.129098635	1.938099528
-13.80126824	2.12085874	0.896112408
-13.57650245	1.076637863	3.716064202
-13.82645981	2.682872679	3.15777556
-13.88720969	2.166523886	2.466676112
-13.52906433	1.610646387	1.745835084
-13.82162034	2.174827939	0.385935188
-13.81801012	2.729508427	3.71616191
-13.87436606	2.206157066	3.002799085
-13.46001202	1.637168867	2.246171996
-13.80617255	2.206432372	1.407110548
-13.87306749	2.246379814	4.12985109
-13.51646797	1.170586091	3.154658147
-13.58814771	2.723250097	2.571996013
-13.88355057	2.258025128	1.939055467
-13.80184712	2.251166049	0.897457386
-13.87129887	2.289787603	3.55695706
-13.48089036	1.72012666	2.766931405
-13.4075773	2.729142795	2.021190861
-13.82961261	2.306716135	0.386734784
-13.54675164	1.76573481	3.31588137
-13.54879033	1.266491278	2.636966249
-13.02228709	2.69234944	1.964344362
-12.96073287	2.685520564	0.97640662
-13.86598962	2.376399938	4.134080159
-12.98821077	2.727591271	2.975537221
-13.54059894	1.815857891	2.263168618
-12.91007969	2.710477727	1.459156673
-12.98306404	2.776655051	4.058069618
-13.5520303	1.851058623	3.31989133
-13.50168842	1.345706606	2.629356642
-12.96875656	2.764365095	1.958791236
-12.90597496	2.75687056	0.973537432
-13.5328713	1.880398986	3.868525741
-13.58412994	1.386682598	3.175041504
-12.967238	2.806370143	2.462327999
-13.88433999	2.477334358	1.944244886
-13.80007502	2.468761322	0.899698938
-12.97524076	2.85383788	3.505187455
-13.88633822	2.514915161	3.016385368
-13.47253267	1.933118952	2.25467019
-12.88361534	2.828970772	1.459046643
-12.85839742	2.8335504	0.489481938
-13.51186606	1.447863165	3.707903848
-12.94995163	2.88592237	2.974662224
-13.8744072	2.558744336	2.476010437
-13.53930033	1.992353518	1.753588098
-13.79840467	2.555935223	0.900595571
-13.6244441	2.021109356	3.899855373
-13.5998328	1.514883668	3.181835957
-12.96195795	2.930368328	2.466342491
-13.88139637	2.60886001	1.947112704
-12.91591383	2.925172397	0.976921604
-13.87503618	2.101807928	3.973411796
-13.45383742	1.540423742	3.148769683
-12.92798934	2.964407959	2.461598197
-13.87527284	2.651807143	1.947385812
-12.92826203	2.969695932	0.978540167
-13.90370481	2.149805926	3.983491658
-12.93804844	3.008524287	2.978162448
-13.85993905	2.688208011	2.477738973
-13.8761129	2.172576865	1.799725075
-13.80662025	2.689120103	0.902709032
-12.95158257	3.057641641	3.511054936
-13.80870842	2.720253291	3.008233598
-13.91772227	2.215385938	2.334587143
-12.90062056	3.040856674	1.466082971
-12.90543144	3.093101774	4.056315811
-13.87665937	2.243575141	3.411881088
-13.5425344	1.686354224	2.644576094
-12.91432836	3.085940359	1.961421589
-12.91202065	3.09134513	0.979422972
-13.8795322	2.277058234	3.982402085
-12.92877802	3.13207029	2.982537907
-13.36650694	2.720388081	2.393903131
-13.88292656	2.304745557	1.803283947
-13.00692801	3.201947378	4.094315441
-13.09105774	2.701177698	3.381831699
-13.88859797	2.33827479	2.867481819
-13.51676602	1.777753474	2.126366224
-13.02074808	2.700415213	1.338317132
-12.97939393	2.719679229	3.896969068
-13.55451068	1.805292341	3.179571217
-13.6020995	3.383678566	2.601374667
-12.97004071	2.727173341	1.827073956
-12.89759355	2.718051957	0.845901455
-13.88547914	2.409476192	3.990302325
-13.8105843	3.480568332	3.193216723
-12.96039503	2.762198706	2.325624343
-13.88652733	2.436880551	1.80658843
-13.76254334	3.522613217	4.342189702
-13.88845343	2.464658163	3.4236747
-12.95474811	2.802572327	2.326142904
-12.90491478	2.800516692	1.329004502
-12.96033319	2.840452283	3.356813725
-13.59471867	1.947593882	2.661317605
-13.79683786	3.566507105	2.10507224
-13.81522485	2.51707422	1.281441287
-13.60314251	1.966438258	3.750284419
-12.95220116	2.883428058	2.836209109
-13.8863271	2.561287272	2.339163111
-13.54809657	2.000986332	1.623826625
-13.78825079	2.560868956	0.766880004
-12.94833416	2.92120198	3.35828548
-13.8504934	2.071043587	2.71382477
-13.87117458	2.610040727	1.808622022
-13.79656049	2.09523967	0.630752911
-13.87339212	2.637991266	3.427684661
-12.9270614	2.96309656	2.327525733
-13.82902608	2.129262763	1.659032467
-13.78019554	2.136026908	0.630301406
-13.8719123	2.681832826	3.42933571
-12.92462562	3.004303295	2.328735707
-13.81556082	2.17060073	1.658208253
-13.81501951	2.184847878	0.632197847
-13.85026935	2.721755281	3.426033375
-12.90192562	3.04077821	2.326315757
-13.85099945	2.219733058	1.66327131
-13.76648814	2.738441836	3.974229096
-12.92071594	3.085172095	2.839344315
-13.89569052	2.263173483	2.195868576
-13.51564894	2.720438642	1.258086161
-13.87978917	2.267990326	3.837414727
-13.3370289	2.711085776	2.770921579
-12.9264933	3.134950497	1.833629037
-13.82069272	2.308885219	1.145859563
-12.91026145	3.163427438	3.362945611
-13.89134614	2.339329685	2.729805251
-12.955405	2.685536698	1.695376653
-13.78815248	2.354383124	0.632242968
-12.97784043	2.716132402	3.218230602
-13.62161733	3.387366377	2.46339166
-13.83641673	2.391907075	1.664919736
-12.97220856	2.746348532	3.754376888
-12.99331607	2.765984949	2.704686037
-13.83096873	2.434689797	1.665155175
-13.85661351	2.439149253	3.838994014
-13.74468445	3.507659743	2.489493247
-13.71652235	3.509909085	1.424934839
-12.94947212	2.824662255	3.752742289
-13.89637023	2.515918074	2.736654063
-12.95247159	2.851140805	1.699443835
-12.94450314	2.865209171	3.7538321
-12.95965588	2.883752212	2.703089825
-12.9407601	2.890216386	1.699062486
-13.86393052	2.572210366	3.847417579
-12.95233054	2.927419644	2.199758097
-13.80121998	2.611439708	1.148630702
-12.91497265	2.957093359	2.697503914
-13.81832726	2.651612176	1.668334367
-12.92882813	2.997046276	3.221296903
-13.88568027	2.701185755	2.206347788
-12.95895558	3.03569296	3.768543478
-13.71647372	2.701275208	2.709068794
-13.67884522	2.718921739	1.140480362
-12.9062713	3.080383866	2.70149385
-13.28225683	2.675722684	1.606518032
-13.35225244	2.70529363	3.167794057
