-5.509357561	-3.927719403	0.305826445
-6.438806534	-3.600260423	0.005021364
-6.040788143	-3.669067044	-0.320079651
-5.920561059	-3.881389844	0.38712561
-5.301170142	-3.753989106	0.056347458
-6.622817555	-3.672896484	-0.272399058
-6.443470388	-3.55686754	0.542938576
-6.078397527	-3.646523694	0.195518062
-5.595531146	-3.637417498	-0.121852992
-6.98621669	-3.832516845	0.881408911
-5.559192224	-3.886577084	0.306594064
-6.592733688	-3.607084694	0.005115298
-6.218539165	-3.699113953	-0.327680137
-7.3859027	-5.135750104	0.735651814
-6.665501339	-3.623535691	0.282039088
-6.117260663	-3.617251543	-0.063755985
-5.699275376	-3.651657551	-0.37215286
-6.331847706	-3.724214531	0.471432502
-5.70160378	-3.635238766	0.122161256
-5.362028119	-3.694299747	-0.181654257
-7.068486617	-3.793435445	0.887345772
-5.583192236	-3.827339157	0.305961897
-6.734978985	-3.60476838	0.005199702
-6.205707378	-3.614572652	-0.325237122
-6.344220933	-3.67928518	0.47066396
-5.782199029	-3.636917199	0.123407619
-5.427579496	-3.690557149	-0.183104378
-7.199704566	-3.807141754	0.900868695
-5.61484547	-3.798607212	0.306413432
-6.825079933	-3.599293602	0.005252114
-6.349916585	-3.646572557	-0.3316161
-7.907479813	-4.914645783	0.84959896
-6.831832371	-3.579299558	0.286719901
-6.343978574	-3.621141895	-0.065532219
-5.903174215	-3.655805173	-0.381759996
-6.371740157	-3.617289943	0.470215644
-5.892036098	-3.630752394	0.125033306
-5.496250093	-3.663733035	-0.18427561
-7.353630223	-3.802346022	0.915710966
-5.670382382	-3.760571838	0.307542284
-6.979682097	-3.599113435	0.005345367
-6.485097153	-3.64524564	-0.336909291
-7.229347898	-3.706034257	0.599292383
-6.446547135	-3.603204056	0.203707159
-6.113830152	-3.712646255	-0.130597202
-5.467147811	-3.593482019	-0.422274526
-6.160260598	-3.721768349	0.393568604
-5.598925283	-3.663079417	0.058038922
-7.189316033	-3.647757592	-0.289976676
-7.601208856	-3.842113662	0.942097168
-6.576226719	-3.622909641	0.207098604
-6.146788363	-3.681227265	-0.130816264
-5.534306493	-3.589190415	-0.425752667
-5.78156475	-3.732970549	0.311064263
-7.218291334	-3.610717436	0.005493755
-6.621402983	-3.615659691	-0.341659573
-7.643979634	-3.800867002	0.629749939
-6.666854945	-3.619693767	0.209249274
-6.136546151	-3.624121346	-0.13012257
-5.705007463	-3.650363751	-0.437153307
-6.295864515	-3.699002427	0.399301766
-5.742980866	-3.65748025	0.059062475
-7.357280753	-3.620146105	-0.294937243
-7.752207047	-3.799728049	0.954960387
-5.893343164	-3.728740069	0.315218409
-7.335669889	-3.585406358	0.005557739
-6.807719247	-3.636462839	-0.349531498
-6.539931639	-3.79166158	0.689839081
-6.785522914	-3.603659784	0.211923823
-6.296877604	-3.641060658	-0.132806075
-7.776542734	-4.864632784	1.087614063
-7.783231708	-4.108169098	0.564809585
-6.330922091	-3.638107991	0.131915363
-5.861408217	-3.652540513	-0.192669523
-8.023521837	-3.841532276	0.983985226
-6.340782488	-3.621464102	0.399301766
-5.830779657	-3.613594611	0.059504857
-7.599597968	-3.624227069	-0.302845349
-7.135783689	-4.049829335	0.748726682
-7.535278057	-3.572464474	0.310012651
-6.958140843	-3.611776253	-0.070331637
-7.441663549	-4.560397086	1.034864189
-7.593225302	-3.57144647	0.311944437
-7.00207934	-3.607356556	-0.07066356
-6.958521879	-4.23500719	0.965865376
-6.54031633	-3.656008308	0.409730701
-5.963800636	-3.620489862	0.060519738
-7.846436802	-3.653686466	-0.31132864
-7.137215057	-3.628314903	0.513830031
-6.532888035	-3.622016863	0.134949984
-6.136836243	-3.694707804	-0.199836416
-8.003456951	-3.677868567	0.64976065
-7.134511834	-3.594752825	0.22036107
-6.593514615	-3.625930011	-0.137388108
-6.412515906	-3.818025245	0.610299252
-7.214351172	-3.607270618	0.222484172
-6.666915269	-3.639700224	-0.138684226
-6.43192088	-3.802899368	0.611032748
-7.254038271	-3.599338208	0.2233665
-6.694752031	-3.628280763	-0.139031065
-6.446995477	-3.785167098	0.611358784
-7.317061613	-3.602676711	0.224965722
-6.808869905	-3.66314784	-0.141166923
-6.462882863	-3.767879955	0.611766301
-7.338857926	-3.585477032	0.225296587
-6.81125654	-3.637531176	-0.140984369
-6.498564022	-3.762015915	0.614048385
-8.056250955	-3.550464358	0.327287179
-7.398064352	-3.584416833	-0.073749538
-8.728530722	-3.822611951	1.054018539
-8.07809411	-3.530533817	0.327732962
-7.45048332	-3.581632406	-0.074162196
-8.001042164	-3.824698552	0.89251188
-6.376280314	-3.634749302	0.331744691
-8.189362213	-3.545714781	0.006074374
-7.143024862	-4.052393797	0.973754289
-7.010919667	-3.641444208	0.432008146
-6.427132461	-3.636768833	0.064058801
-8.381906542	-3.594427232	-0.32804354
-7.806850268	-3.671861845	0.553665783
-6.995586632	-3.602563133	0.142157184
-6.453897965	-3.620633988	-0.206445572
-8.684756098	-3.672626634	0.695594117
-7.628320526	-3.554490466	0.232134626
-7.020422492	-3.584746629	-0.143923444
-7.491205299	-3.807057861	0.76681097
-6.592558759	-3.651584499	0.340639998
-8.487785004	-3.551882629	0.006262921
-7.233960508	-3.987442781	0.97940612
-7.202207336	-3.629275587	0.441017418
-6.568543573	-3.611096762	0.065021632
-8.610953039	-3.568193495	-0.335268696
-7.274929612	-3.637977502	0.444784938
-6.591002305	-3.597155428	0.065134397
-8.620011109	-3.540999032	-0.335196783
-7.299473047	-3.622299122	0.445603965
-6.635417289	-3.595018873	0.065464018
-8.662303176	-3.52735109	-0.336418947
-8.857078266	-3.583117475	0.355186474
-7.994734017	-3.574998377	-0.078566898
-7.376287495	-3.604181959	0.448934673
-6.779965592	-3.619698707	0.06666973
-7.407397179	-3.936121837	0.994595291
-8.091740777	-3.560983257	0.243853018
-7.429691402	-3.59471835	-0.150696096
-8.308511344	-3.631172946	0.581909502
-6.839217478	-3.597581538	0.067034041
-8.750757409	-3.793972513	0.959903336
-7.508934477	-3.579904115	0.150285618
-7.522616562	-3.90898915	1.005192283
-7.009260564	-3.633226505	0.356850197
-7.647780137	-3.613752304	-0.154438404
-7.722618613	-3.62773971	0.466571002
-8.456714395	-3.596288632	-0.082442317
-8.639256524	-3.650120038	0.601891423
-7.036040072	-3.591579282	0.068526005
-8.095328047	-3.745791936	0.813975589
-7.725676222	-3.567549821	0.153735684
-7.890129401	-3.977761924	1.047698382
-8.50245323	-3.525776361	0.253889502
-7.23987902	-3.634266731	-0.225994182
-7.951971342	-3.617036309	0.477709739
-8.616751991	-3.540121525	-0.083572645
-7.975772363	-3.598371842	0.478474168
-8.795197153	-3.581935957	-0.085196372
-8.880262612	-3.587019422	0.264174104
-7.37712683	-3.618543505	-0.229229045
-8.04273716	-3.565320878	0.158937873
-8.20778475	-3.61250035	0.490377306
-8.046729584	-3.533906014	-0.160462586
-7.489885876	-3.594340074	0.072065068
-8.713959385	-3.767295658	0.171509849
-8.33611288	-3.577761022	0.49605587
-7.691243337	-3.627333431	-0.237232548
-8.791201092	-3.736833518	0.17257558
-8.831760655	-3.73011395	0.874862449
-8.482412802	-3.571057903	-0.16803847
-7.767679839	-3.583102057	0.386651685
-8.130307235	-3.725317204	0.731332146
-8.620571909	-3.567111819	-0.170338614
-8.624596063	-3.54169499	0.168439107
-8.784290524	-3.580108703	0.518715589
-8.011100579	-3.59944906	-0.245012951
-7.981647921	-3.562670901	0.075820988
-8.040952102	-3.5606047	0.397488584
-9.024328531	-3.577067408	0.175375374
-8.214184625	-3.570201552	-0.249865246
-8.365048896	-3.581992133	0.411305626
-8.650625021	-3.671844421	0.081519922
-8.626010541	-3.624003995	-0.261019928
-8.655762086	-3.581429857	0.42340683
-8.657149579	-3.543701457	-0.260964167
-8.990288286	-3.590183577	0.08397471
-11.76212675	-4.261625507	0.4650747
-11.21726097	-4.408648547	-0.108125921
-11.28226388	-4.357182356	0.333602191
-11.53096593	-3.899848416	0.452518177
-11.20773733	-4.207598385	-0.107399281
-11.25960877	-4.15110521	0.331010342
-11.22438225	-4.09638189	-0.107192952
-11.24087449	-4.027070846	0.329355986
-11.25317595	-3.992565337	0.329355986
-11.25216831	-3.953383008	0.328969956
-11.71637786	-3.605288795	0.455713045
-11.17113601	-4.343957788	-0.218842504
-11.22413193	-3.863696749	-0.106493223
-11.26788929	-3.387235512	0.008008862
-11.14173186	-4.219779124	0.215240793
-11.26218667	-3.76384263	0.327536196
-11.75686858	-3.421235652	0.455192935
-11.18396579	-4.152601089	-0.21782021
-11.19759071	-4.118614571	-0.217838464
-11.03173091	-3.571738696	-0.104026232
-11.35432371	-3.186552143	0.00802724
-11.14879541	-3.989390908	0.213922189
-11.33623466	-3.558000365	0.327729196
-11.19639283	-3.962878394	-0.216852692
-11.73162613	-3.176256351	0.008272965
-11.14159673	-3.871515107	0.213091286
-12.26429262	-3.244645623	0.471613031
-11.28027713	-3.424132521	-0.105757613
-11.17061423	-4.263388119	0.103717139
-11.43068221	-3.395934	0.328914822
-11.17153204	-3.762267932	-0.215227974
-11.28061083	-3.311154388	-0.105470542
-12.59408543	-3.16214505	0.008838608
-12.74544041	-3.158611641	0.008937988
-11.22342112	-4.087431935	0.103613054
-11.20468607	-3.587773488	0.21254939
-13.72832023	-3.273696592	0.524662507
-11.48137289	-3.179629681	-0.10687897
-13.51045812	-3.172744446	0.009446454
-11.21611278	-3.929557453	0.103092601
-11.80496816	-3.155203767	0.33704877
-11.24819899	-3.445380771	-0.214789865
-12.05905185	-3.18080601	-0.111884717
-14.17610302	-3.146019379	0.00988413
-11.10427445	-3.738026206	0.101635342
-11.26633367	-3.304961593	0.212115871
-12.70228712	-3.187102953	0.361230046
-12.73626208	-3.154125409	0.361919344
-12.96533443	-3.168670039	0.368150801
-13.1683757	-3.175511221	0.373637766
-13.2529367	-3.152910661	0.375760854
-13.44356006	-3.154713523	0.380889387
-13.75215622	-3.182647148	0.3893542
-11.22905843	-3.437937022	0.101869544
-11.26060831	-3.409846172	0.102060376
-11.2892165	-3.380733624	0.102225182
-11.31295849	-3.3500577	0.102346619
-14.68060112	-3.157860911	-0.13471559
-11.39330495	-3.260098923	0.102797678
-13.12187174	-3.159117589	0.24383481
-11.75755077	-3.208762738	0.105720876
-14.01067558	-3.146539651	0.259423317
-14.6079545	-3.139733681	0.269936087
-13.08138345	-3.14227549	0.116702383
-14.00233673	-3.137126748	0.124474449
-6.94351677	-0.374144567	0.769157628
-6.892819766	-0.265450528	0.763000827
-7.01282112	-0.438298635	0.707160209
-6.846247397	-0.116509829	0.757393759
-6.213166581	-0.082005896	0.230995652
-6.589733963	-0.068826734	0.486143396
-6.901413627	-0.303932029	0.69524399
-6.122809792	-0.035225169	-0.444159367
-5.75784957	-0.015460325	-0.417679081
-5.61237073	-0.000789757	-0.20187295
-6.899940917	-0.240261733	0.694843447
-6.846944309	-0.217386884	0.689436114
-5.694914473	0.037124563	-0.413121024
-5.417274193	0.049099008	-0.194863473
-5.554805077	0.063026032	0.206514117
-6.896242352	-0.407919396	0.630406217
-5.581641859	0.087765657	-0.404945413
-5.539326371	0.096846459	0.205956888
-6.879879331	-0.367132948	0.882831294
-5.309836903	0.111077468	0.003615083
-6.295944643	0.143994998	0.69659559
-6.233129039	-0.078964367	0.171943397
-5.552679575	0.138437962	-0.4029196
-5.453280321	0.143843875	0.402421967
-6.325466503	-0.059400512	-0.056749735
-6.2204283	0.180461744	0.688349884
-5.561765913	-0.036329385	0.153414548
-5.545744401	0.172320102	-0.402485499
-6.902582614	-0.280913013	0.630406217
-5.347052812	0.177523065	0.003641629
-6.856948526	-0.26050352	0.87927248
-5.74917037	-0.005286768	0.368961091
-5.65620246	0.00151164	-0.256154206
-6.600567699	0.011185369	0.909918094
-5.422204428	0.209635842	0.400288478
-5.310366505	0.211159927	-0.191161027
-6.073747372	0.250835503	0.672408205
-5.35756154	0.225286014	0.199344274
-5.456295839	0.034938104	-0.247106013
-6.804968444	-0.193330144	0.621227757
-5.29599299	0.243143919	-0.190693726
-5.386176438	0.257909829	0.39778711
-5.446382918	0.065824458	-0.048864338
-6.733655784	0.094051395	0.92835405
-5.375399684	0.273925629	0.397051439
-5.416160093	0.082078853	-0.048595212
-6.78979326	0.115671332	0.936138119
-5.378517463	0.290631067	0.397345708
-5.405884779	0.098512814	-0.048505504
-6.942617643	-0.36678991	0.8243354
-5.686098733	0.116900821	0.364990319
-5.429550714	0.115608256	-0.048720807
-6.74042747	0.156205931	0.929446543
-5.763531496	0.13618371	0.369985814
-5.423172552	0.132119207	-0.04866698
-5.50798437	0.34050739	-0.400314996
-5.3129109	0.336153973	0.39271088
-5.442733358	0.149305066	-0.048846397
-5.483027127	0.355853761	-0.398578564
-6.617345499	-0.045837601	0.603870467
-5.248219829	0.351818111	0.003580368
-5.468973216	0.371794361	-0.397638032
-5.644454252	0.184573817	0.568371749
-5.279517288	0.368245198	0.196743798
-5.323459657	0.181146444	-0.241224688
-5.922420603	0.426881619	0.656796377
-5.704477074	-0.002520161	0.311939149
-5.474087067	0.001976501	-0.099946839
-5.793393512	0.217667621	-0.476130388
-5.637250032	0.218972337	0.567770934
-5.220361402	0.396320827	0.194626284
-5.396068797	0.018503336	-0.098522936
-5.805644215	0.23596665	-0.47719445
-5.278297149	0.415341469	0.390577362
-5.406017017	0.033047476	0.097667592
-5.354502073	0.231558902	-0.24271765
-5.477759175	0.246447385	0.551849282
-5.275596747	0.433087031	0.196780947
-5.392854217	0.051583954	-0.098468167
-6.774190261	0.075294669	0.868087728
-5.405589635	0.260577014	0.347314024
-5.18007668	0.443161437	0.003538847
-5.555133572	0.072702503	-0.305451924
-5.597148889	0.081438423	0.510813549
-5.359771214	0.277666415	0.148037866
-5.200039862	0.463139249	-0.187782099
-5.493142283	0.297822474	0.553651726
-5.300247315	0.484260767	0.197858286
-5.453130253	0.102360923	-0.099581731
-5.52072789	0.309272786	-0.454112313
-5.297120437	0.498687866	0.392490164
-5.306073501	0.307540385	0.146604091
-5.499771407	0.120116483	-0.100439725
-5.460595582	0.523021232	-0.397927413
-5.463402833	0.329843265	0.550847924
-5.660895682	0.136464799	0.30964589
-6.223333772	-0.073327103	0.053988082
-5.204508276	0.511859858	-0.188105618
-7.256580245	0.455746671	1.276033874
-6.439223505	-0.060159681	0.526595019
-5.305508501	0.534023234	0.198229787
-5.16012607	0.331946657	-0.04638838
-5.495475522	0.15625926	-0.302267844
-6.003432504	0.61832947	0.667570751
-5.273419123	0.351600587	0.339180345
-5.63443151	0.172787251	0.101840185
-5.773680461	-0.029072314	-0.161073846
-5.449599026	0.572631673	-0.397493313
-5.37775231	0.3743779	0.542536652
-5.549624763	0.18490301	0.303639709
-5.185274722	0.556002499	0.003549738
-5.431545816	0.187802211	-0.298809255
-7.161912987	0.251734328	1.187150284
-5.466210002	0.198914299	0.299107759
-5.149164242	0.570298061	-0.186344256
-6.273294677	0.007318702	1.215656539
-5.959953541	0.669342129	0.663392942
-5.279579522	0.403631762	0.146052629
-5.712056442	0.025705697	-0.368685064
-5.269339647	0.610487265	0.391313062
-5.420116562	0.232820812	0.098010788
-5.65706606	0.042814535	-0.365142491
-5.935006833	0.703442381	0.661084156
-5.164534012	0.620167679	-0.187099119
-7.022293223	0.333151337	1.164596962
-5.315631361	0.650623367	0.199084219
-5.435165821	0.672476531	-0.397276262
-5.918743182	0.738369174	0.659764866
-5.439148443	0.089430135	-0.151759667
-5.468436456	0.491890262	-0.450920098
-5.265407901	0.675611881	0.39160733
-5.161580571	0.668059341	-0.187206959
-7.197017205	0.674176296	1.268600937
-5.275175889	0.693322225	0.392490164
-5.432501161	0.12266705	-0.151592356
-7.183150832	0.695114794	1.266526695
-5.32803358	0.323105555	0.487094896
-5.671445221	0.141411362	0.256428232
-5.240289409	0.708730289	0.003599427
-5.174496525	0.511039777	-0.235479098
-7.170203754	0.716072498	1.26462519
-5.274774248	0.726221119	0.392784432
-5.283001638	0.534587091	0.146466226
-5.266049143	0.34165631	-0.096350578
-5.522174743	0.160430677	-0.356575904
-7.073359263	0.208928466	1.10371324
-5.355173783	0.555658773	0.34552076
-5.284084884	0.357071103	0.095680641
-5.41215912	0.172057772	-0.151062501
-5.41594255	0.77156223	-0.396842161
-6.523697255	0.216146176	0.773940387
-5.230398788	0.558936638	0.337579216
-5.326847895	0.376381478	0.096475417
-5.396620491	0.188138823	-0.150644196
-5.420458779	0.789180356	-0.397348622
-6.48628471	0.234830208	0.769583823
-5.251093552	0.772271258	0.391533778
-5.286799943	0.584176019	0.146714375
-5.180919266	0.384048464	-0.094853652
-5.530436039	0.211630213	-0.357220021
-7.28538377	0.282323571	1.137154426
-5.249685692	0.788525852	0.39160733
-5.286969423	0.600618625	0.146769524
-5.161773209	0.398555998	-0.094525059
-5.513807441	0.227936873	-0.356189456
-5.896102404	0.901493213	0.659764867
-5.258530713	0.418011238	0.288460462
-5.387709522	0.234196143	0.046779839
-5.267086127	0.813599619	-0.191700211
-5.452771628	0.642676187	-0.450920097
-5.36673626	0.639448809	0.543938553
-5.269165057	0.435128347	0.289115666
-5.348009199	0.248911163	0.046441546
-5.237911654	0.825554073	-0.190729668
-5.454731931	0.659880795	-0.451247505
-5.31585946	0.260413202	0.435229414
-5.182497549	0.82894784	0.19510923
-5.145917568	0.633713944	-0.046513971
-5.312906194	0.461881767	-0.293209667
-7.039788341	0.616068025	1.170643852
-5.331955831	0.277601763	0.436614983
-5.186833804	0.845969632	0.19536927
-5.149901745	0.650249994	-0.046567798
-5.302513973	0.477373602	-0.292715604
-7.006424265	0.634814226	1.165414141
-5.35865005	0.688562251	0.543738281
-5.279852019	0.484975996	0.289934694
-5.16577773	0.288099599	0.044880194
-5.229105722	0.873562919	-0.190693726
-5.417790751	0.706064176	-0.448710106
-5.895301908	0.994142547	0.661304038
-5.211148702	0.686607286	0.337323064
-5.456347102	0.520379955	0.099022331
-5.262653338	0.312927114	-0.147074697
-5.418138416	0.925156992	-0.398723283
-5.893203805	1.012392704	0.661414008
-5.232753847	0.705793108	0.33886012
-5.458705103	0.537509228	0.099094579
-5.245705945	0.328072925	-0.146628511
-5.415274756	0.941775264	-0.398723284
-5.325473288	0.734183878	0.541034615
-5.271191072	0.533148007	0.289716302
-5.186856086	0.337188807	0.045088375
-5.218876081	0.921305819	-0.190621828
-5.437713516	0.759621216	-0.450920097
-5.133922051	0.533369414	0.471009896
-5.279410727	0.358919	0.239179482
-5.128248804	0.919322164	0.003546334
-5.154703774	0.733737777	-0.235795778
-7.146493214	1.025246257	1.267045255
-5.20157608	0.556533779	0.477371201
-5.234440152	0.371998386	0.237192725
-5.160819525	0.941512106	0.003570839
-5.168245629	0.751849709	-0.236519631
-7.186193451	1.053452495	1.274650928
-5.22597495	0.966295414	0.392048762
-5.252815741	0.777056062	0.146466226
-5.157310743	0.573820114	-0.094744121
-5.44824571	0.409733364	-0.352646884
-6.441068107	0.490931095	0.765933696
-5.224945674	0.982692628	0.392195896
-5.247442092	0.792719865	0.146383509
-5.163472993	0.590548705	-0.094890167
-5.455916922	0.427147418	-0.353226569
-6.465269644	0.512730839	0.768995108
-5.227753303	0.803355586	0.339436526
-5.45682367	0.63894162	0.09925715
-5.19294699	0.4208592	-0.145345715
-5.403877331	1.042615798	-0.399229744
-5.954994671	1.155177743	0.670979004
-5.21934845	0.818462698	0.339052255
-5.444911175	0.654486647	0.099076519
-5.181670461	0.435950913	-0.145066855
-5.408483007	1.060725424	-0.399808535
-5.326164425	0.851200551	0.542837059
-5.259517538	0.646340836	0.2897709
-5.381650543	0.466095546	0.046857906
-5.218472191	1.03725526	-0.191376706
-5.436873354	0.878919854	-0.452311597
-5.240848576	1.052430837	0.394329385
-5.214629409	0.853341367	0.145749331
-5.152861507	0.653490574	-0.094835398
-5.424424328	0.491725359	-0.351551916
-6.050272465	1.231546663	0.682962696
-5.241588911	0.676810282	0.289006471
-5.437434978	0.504559157	0.047369683
-5.210051655	1.068854056	-0.191304808
-5.408771826	0.90846636	-0.450428985
-5.325952567	0.90151366	0.543638145
-5.240477343	0.693018974	0.289061068
-5.472690716	0.524770175	0.047690628
-5.205769312	1.084629379	-0.191268866
-5.401047435	0.924215422	-0.450019739
-5.355518241	0.923428364	0.546942627
-5.232389614	0.708289615	0.288733451
-5.459114013	0.540375621	0.04758654
-5.1848186	1.096872225	-0.190621828
-5.40702301	0.942321307	-0.450756393
-5.234340946	0.723051543	0.482187614
-5.467035047	0.557523413	0.248390844
-5.117776599	1.096861437	0.003562671
-5.206691125	0.92134529	-0.239460301
-7.081142444	0.993882155	1.184535429
-5.232860424	1.134599409	0.394991503
-5.219620691	0.936583642	0.146273211
-5.458980803	0.777572006	-0.100677041
-5.406320016	0.573820611	-0.350907799
-5.356581848	0.974460943	0.547943986
-5.47542953	0.592347407	0.248932709
-5.173445567	1.14203874	0.003606234
-5.201922186	0.953455716	-0.239505541
-6.899209261	1.011551387	1.155118152
-5.254026589	1.172988023	0.397124992
-5.210827144	0.968045263	0.146190495
-5.442239528	0.809288297	-0.100457979
-5.410631185	0.607873679	-0.351423082
-5.361257487	1.009334827	0.549045479
-5.230782642	0.789958007	0.289279489
-5.454156873	0.624505549	0.047621233
-5.170306657	1.176939687	-0.190729668
-6.367052163	0.741620346	0.760046425
-5.242667477	1.004431482	0.342574711
-5.451346717	0.842719673	0.099654535
-5.178900954	0.612298823	-0.145485146
-5.470670532	1.265996097	-0.407332996
-5.255572877	0.631111443	0.432865821
-5.196796491	1.212251898	0.198378381
-5.207178572	1.018166302	-0.047599446
-5.250355507	0.832657813	-0.292276408
-6.445176496	0.790832943	0.769937041
-5.159068507	1.021271605	0.337515171
-5.412510564	0.870753082	0.099040391
-5.171078639	0.64357063	-0.14537361
-5.479294508	1.303463705	-0.408562938
-5.254813162	1.258086622	0.398596391
-5.187526202	1.046280206	0.145969913
-5.191418045	0.853578744	-0.096058493
-5.400670203	0.690796948	-0.351423082
-5.333446175	1.089064816	0.54784385
-5.176683567	0.863203384	0.286986201
-5.471700505	0.711705912	0.047864111
-5.139023458	1.253032081	-0.190262368
-6.937183898	1.16980722	1.16541414
-5.265395104	1.294830776	0.39999418
-5.192752468	1.080534307	0.146300779
-5.191995947	0.886426227	-0.096168024
-5.403253348	0.724850581	-0.351873961
-5.34321466	1.125255338	0.549546158
-5.182112277	0.896823701	0.287586836
-5.477138749	0.746616842	0.047950854
-5.155474192	1.290608098	-0.191161027
-6.430320184	0.889331723	0.769701544
-5.256971913	1.124715082	0.345008398
-5.258704755	0.928975787	0.096475417
-5.493220486	0.76940364	-0.15474355
-5.467355319	1.389569433	-0.409214088
-5.337181968	1.158230513	0.549646294
-5.172581009	0.927898434	0.287368416
-5.471464654	0.780068758	0.047942178
-5.151329605	1.323211715	-0.191304808
-6.424742342	0.928770685	0.769701544
-5.21531875	1.35059721	0.397419289
-5.205456032	1.149998239	0.147045255
-5.173843187	0.948810838	-0.096040239
-5.406787009	0.792984801	-0.352711287
-5.328032915	1.190523213	0.549446023
-5.128503194	0.95250831	0.285238951
-5.461629546	0.812890315	0.047898808
-5.154710206	1.357849496	-0.191736167
-7.094828509	1.331137735	1.195812031
-5.267658446	1.398696371	0.402054117
-5.198301568	1.181916648	0.147045255
-5.16104818	0.979234358	-0.095912454
-5.416616225	0.828408292	-0.353677448
-5.323536601	1.22386177	0.54974643
-5.226188013	0.810095719	0.239044016
-5.169501008	1.393398755	0.003644352
-5.138927017	1.188599655	-0.238872167
-6.754549921	1.834778879	0.774214965
-5.186786212	1.209952649	0.341806168
-5.310381309	1.039247828	0.097757907
-5.24218032	0.832897292	-0.148078618
-5.481254201	1.501034273	-0.412252822
-5.149136548	1.019994184	0.479006962
-5.171807217	0.83419397	0.236786341
-5.194591728	1.434408122	0.003668176
-5.263713048	1.251536186	-0.245024946
-6.438899663	1.052156591	0.77358717
-5.310620436	1.480101375	0.406688974
-5.206732821	1.251224431	0.147706986
-5.192740563	1.05142353	-0.096733933
-5.497869673	1.541910326	-0.414206276
-5.345825174	1.298255062	0.553651727
-5.198119037	0.871195858	0.238231262
-5.188579037	1.467070762	0.003670218
-5.241377892	1.280254519	-0.244346317
-6.467568026	1.097626725	0.777826013
-5.289930228	1.509375265	0.405806139
-5.193134658	1.281711656	0.147541553
-5.317338489	1.110659196	-0.099180122
-5.406351412	0.928984143	-0.354063925
-5.363824322	1.337531853	0.556355393
-5.205470223	0.905299686	0.238818248
-5.237114797	1.515558545	0.003711058
-5.222765163	1.309718056	-0.243848678
-6.45093142	1.135568776	0.776648524
-5.572551538	1.62705727	0.428244666
-5.194862753	1.316006824	0.147817285
-5.433580603	1.169779071	-0.101480266
-5.396619653	0.961439242	-0.353806254
-6.900451421	2.034496388	0.795763712
-5.259183903	1.346550478	0.348402763
-5.243857446	1.143669376	0.096963124
-5.216200415	0.94403009	-0.147883413
-5.575871714	1.65645286	-0.421947757
-5.240316493	0.958295202	0.435636931
-5.227324185	1.358416644	0.148975343
-5.221313659	1.157647912	-0.097646689
-5.41515272	0.999060547	-0.355416533
-6.871660561	2.071920478	0.793894689
-5.221504759	1.170105303	0.292610167
-5.486004175	1.024194282	0.048410585
-5.347980168	1.6214703	-0.201010232
-7.424365389	1.397040611	1.178300943
-5.254902877	0.994322422	0.437348508
-5.393724217	1.648792041	0.209671837
-5.215086889	1.189885883	-0.097664943
-5.41970331	1.034326286	-0.356125053
-5.354630127	1.440429666	0.55805776
-5.210334949	1.201224477	0.292391775
-5.474707443	1.056888746	0.048367215
-5.332779896	1.442140073	-0.250182387
-6.85609584	2.136260656	0.794334452
-5.226071019	1.22174996	0.293483793
-5.47634556	1.07464269	0.048410585
-5.325439518	1.457702824	-0.250046667
-6.451359101	1.279049028	0.779827658
-5.621925933	1.773348258	0.434865849
-5.262719797	1.454147496	0.150602133
-5.142634781	1.223257555	-0.096514871
-5.423652802	1.086909372	-0.357026783
-5.423567965	1.51263897	0.566669439
-5.146181986	1.04212491	0.237328177
-5.410457212	1.728970169	0.003866253
-5.26733871	1.476599536	-0.247739401
-6.50565394	1.331351858	0.787363354
-5.222366496	1.271687684	0.293920606
-5.458387189	1.123387536	0.04834119
-5.341590678	1.51510572	-0.251449135
-6.766297645	1.664517635	0.892872113
-5.23879851	1.292727197	0.29506725
-5.462745476	1.141764984	0.048410585
-5.397419654	1.763878265	-0.204245379
-6.741910332	1.680470601	0.890330095
-5.224152124	1.306129426	0.294466643
-5.452369923	1.157066048	0.048349867
-5.255346303	1.320947677	-0.297930891
-6.885871389	2.011869897	0.721980309
-5.353717056	1.152719922	0.247532924
-5.203831453	1.525352312	-0.048649039
-5.22417562	1.330166151	-0.296393747
-5.245054857	1.345603521	0.296104697
-5.353481015	1.587069262	-0.050093349
-5.412474565	1.188697591	-0.3576709
-5.513963037	1.648660977	0.369345362
-5.455156577	1.210231337	0.048471304
-5.233304799	1.366737546	-0.297381932
-5.319619705	1.397591965	0.501907721
-5.379475559	1.629520162	0.155041338
-5.230334775	1.180559453	-0.1495845
-6.55981334	1.489882678	0.797607246
-5.354751721	1.221887311	0.248255392
-5.208326269	1.391874265	-0.09843166
-6.693592722	1.541877236	0.814444784
-5.207901975	1.404407558	0.294958054
-5.490247864	1.701182736	-0.051564574
-5.441219472	1.265197871	-0.360569355
-5.217054546	1.42405967	0.295722483
-5.485957304	1.718317461	-0.051573545
-5.446053913	1.283946165	-0.36114904
-5.330644466	1.268113762	0.247668405
-5.211674735	1.444290737	-0.098741998
-6.73995144	1.618022041	0.82186276
-5.317017683	1.282120214	0.247216841
-5.153308495	1.445154771	-0.097719712
-5.250146749	1.280139009	0.441912704
-5.27640924	1.494963248	0.099076519
-5.473595174	1.555786774	-0.312863136
-5.469049465	1.354342399	0.254667213
-5.148479702	1.278868081	-0.147994963
-6.736335588	1.682874594	0.823275689
-5.572339911	1.838405378	0.161851794
-5.16101146	1.298804566	-0.148469028
-6.606953317	1.672103818	0.808086576
-5.548655248	1.849486622	0.161327914
-5.167657556	1.317348434	-0.148775784
-6.735502206	1.726642199	0.824453178
-5.352562962	1.587750017	0.10086477
-5.465534294	1.413088856	-0.364369568
-5.362117278	1.397916921	0.250467916
-5.535139983	1.665456771	-0.317803944
-5.469132144	1.656404906	0.312485187
-5.151448821	1.363831166	-0.148664248
-5.262855956	1.403630092	0.445417368
-5.532054712	1.698867218	-0.10566069
-5.616243617	1.736504021	0.536440566
-5.220930485	1.41313964	0.046918625
-6.865479184	2.143095868	0.921596546
-5.208855331	1.427036752	0.046849234
-5.510274569	1.742968635	0.316034286
-5.162254651	1.434707065	-0.149472964
-5.298927169	1.486128063	0.248752078
-5.574848491	1.789951796	-0.321921284
-5.505096929	1.781109109	0.104531595
-5.488712373	1.563746843	-0.368363019
-5.30147847	1.522593746	0.047846762
-6.914032845	2.000331853	0.853418531
-5.273826008	1.535676004	-0.153237668
-5.344312096	1.78359016	0.10178599
-5.354989529	1.590846954	0.252499839
-5.377829063	1.615603614	0.253809293
-5.30907282	1.613329579	0.04813301
-5.51774331	1.694617094	0.260898432
-5.413096585	1.67756172	0.463429682
-6.891282235	2.155160456	0.856126669
-5.563377326	1.752461575	-0.376478728
-5.576992347	1.775576419	-0.377766934
-5.591836435	1.811693085	0.265684744
-5.727274339	1.881650973	-0.389103171
-5.251781171	0.551939639	0.68414364
-5.082422122	0.864253338	0.468620185
-6.037136835	0.038980409	0.554294796
-5.218576145	0.719909351	0.282340352
-5.45653969	1.7085014	0.099076294
-5.294010643	0.725414556	0.097325846
-5.414130174	1.49478012	-0.107235505
-5.215593067	0.548026192	-0.095935805
-11.30100961	3.837392545	0.443676603
-11.5226361	3.99639913	0.008301553
-11.30199544	4.032115897	0.446091306
-11.49098753	4.183967436	0.008324016
-11.31930802	4.235120659	0.449286175
-11.29263334	3.805246115	-0.106905881
-11.32182016	4.35526687	0.450957906
-11.48360688	3.98496723	0.335284115
-11.28523244	4.425645342	0.008251183
-11.29891703	4.001385368	-0.107533846
-11.35195138	4.567965242	0.454895747
-11.47278757	4.179466832	0.336800606
-11.33907886	4.648681778	0.008341713
-11.29620079	4.196517643	-0.10810798
-11.60666462	4.878634869	0.468046677
-11.49137648	4.387045758	0.339282156
-11.47127239	3.946082946	0.219160499
-11.25566248	4.379088014	-0.108350191
-11.47876171	4.067189087	0.220009478
-11.32987085	4.56606073	0.336938472
-11.31313565	4.602473184	-0.109570231
-11.63559317	4.814223299	0.347333402
-11.64014039	4.85798318	0.347912431
-11.62057525	4.891732886	0.347774566
-11.47355521	4.38514701	0.221906112
-11.39505434	3.926398948	0.10454986
-11.47403908	4.031195178	0.549701919
-11.34429872	4.026093264	0.104419751
-11.31300825	4.564171811	0.220388802
-11.50645957	4.241969786	0.55430757
-11.31588051	4.212539999	0.104740692
-11.42133486	4.81287803	0.223911123
-11.45774306	4.424808686	0.555165519
-11.34596307	4.502073332	0.551733841
-11.32228548	4.574665418	0.10592906
-11.53611283	4.909960409	0.108756838
-13.48014349	4.757861783	1.054536806
-13.01044632	4.822505766	0.89047649
-12.99286058	5.051138148	0.762293486
-35.86885136	13.78506122	2.834683762
-36.10818686	14.2416184	4.293473762
-35.12897514	14.23039549	4.192436735
-34.53832954	14.48702193	4.142852824
-34.81698348	14.9822042	5.599155884
-35.87979017	14.05580852	2.473019267
-35.42943115	14.12501082	3.838612055
-34.53725418	15.62141269	4.192876379
-34.26082095	14.39550247	3.740078187
-35.14056595	15.00643989	5.267501378
-35.10891961	15.12044848	5.269686246
-34.6389954	16.57244563	5.672369459
-36.25457719	14.20801288	3.553339199
-34.36494203	15.06354278	3.776227449
-34.54336627	16.78793477	4.248287717
-35.40096851	14.23565087	4.889253159
-35.00417825	14.20100407	4.840446967
-34.74655707	14.22078972	4.810832996
-35.44032864	16.18747258	3.921224331
-33.97129484	14.16208628	3.358592227
-34.71472966	16.23057141	5.282796406
-36.08581018	13.89383753	4.584887269
-35.64129196	13.84839311	4.53378606
-35.03921673	16.77698456	5.355447793
-34.94724477	13.7219797	3.070242011
-34.72262797	15.23144134	3.460009769
-35.22734276	14.06208047	4.497402433
-35.18397807	17.24613835	5.401605631
-35.15684856	14.17911245	3.099990689
-34.90349281	15.93813009	4.916706581
-34.96640599	14.60371241	3.098768316
-35.00731616	14.87372007	3.11042317
-34.85759748	15.04305389	4.501523735
-35.86305288	15.71630803	6.107100095
-34.39748952	16.73912376	4.901835938
-35.70066135	16.0384283	6.104326332
-34.5385903	16.02861613	5.938815677
-35.01712607	16.53499772	4.591598753
-34.8951501	16.98158695	6.052854624
-11.96502913	5.968387012	0.00910135
-11.62701118	6.024247343	0.008913483
-11.2981399	6.030855045	0.008717448
-11.49970476	6.223963946	0.486101341
-11.24829951	6.137937949	0.008722212
-11.9046387	5.989508444	-0.119554814
-11.17473714	6.231950634	0.00870928
-11.10495455	6.282673291	0.008684775
-11.06570763	6.395623445	0.00869975
-11.28743512	6.075140776	-0.114997607
-11.25012437	6.682134204	0.486435664
-11.27406642	6.199364119	0.35488832
-11.8373917	6.003689658	0.239788653
-11.24467467	6.825315586	0.008953643
-11.13353303	6.846064182	0.485878449
-11.15842898	6.914298128	0.008935264
-11.1648343	6.412838608	-0.115508947
-11.09317328	6.417019468	-0.114970695
-11.07861854	6.45404272	-0.115024518
-11.25050225	7.206691319	0.496688915
-11.0215901	6.511725822	-0.114845101
-11.02304453	6.558290821	-0.115069378
-11.23881121	7.302701097	0.009123132
-11.11425805	7.270360833	0.009040089
-11.13449385	7.332474195	0.009074804
-11.78625233	6.076607159	0.115028268
-10.9662737	6.754397845	-0.115544829
-11.1477538	6.913440717	-0.117679898
-10.96024707	6.843802768	-0.115921605
-11.19961667	7.085867641	0.365558953
-11.21651225	7.193307471	0.367544175
-11.13368561	7.191795595	-0.118908908
-11.22009941	6.227589289	0.111315718
-11.53071483	7.049302626	0.739033191
-11.20026138	7.477362016	0.371459514
-11.04037377	6.306283339	0.110292165
-11.08102376	7.499843978	-0.120039236
-10.94219277	7.07063831	0.235363172
-12.84799762	8.862195069	0.010624028
-12.07045945	8.602069423	0.010089015
-11.82111774	8.70084812	0.009990997
-11.39743619	8.606618949	0.009721449
-12.10949354	8.689030594	0.411109061
-12.04786503	8.7572926	0.41083333
-12.70523334	8.651345147	0.840537636
-12.62232358	8.708725961	0.838571935
-11.56289619	8.738338518	-0.130023826
-11.41418913	8.788363371	0.397350282
-10.75661344	9.09031448	0.523548019
-11.24986531	8.940024627	0.396357656
-11.58700832	8.648325625	0.261211576
-12.39982926	8.797155884	0.687195112
-11.03312005	9.866091344	0.010074721
-11.04403038	9.991110542	0.553639126
-10.98560167	9.293817965	0.396909118
-11.15085394	8.812420051	0.256768049
-11.05255465	8.789955235	0.255124302
-11.6360953	8.694256087	0.126001103
-11.64578879	8.924336687	0.663173308
-11.6034378	9.005425277	0.663895776
-10.95266862	9.923199558	-0.132589493
-11.16331745	10.23516667	0.417754085
-11.4288499	9.154250252	0.661863854
-11.07584747	9.732864033	0.266377659
-10.91043382	9.888185323	0.266016396
-34.29436927	26.5027436	4.794151823
-33.4338965	26.66682879	4.730495018
-34.47283309	26.33809285	4.36612842
-34.25722232	26.67626337	4.369733308
-34.77061071	27.5760499	6.117741132
-34.23228828	26.16886312	3.93201919
-34.78761523	27.0837952	5.649306793
-34.15051817	26.94626636	3.96964188
-35.08248995	26.68477391	3.604498231
-35.01091671	27.31498289	3.63131293
-34.12937456	27.10900025	5.167962792
-10.21341099	7.911177541	0.008793684
-10.00045868	7.94447826	0.008693624
-9.943892209	8.031557493	1.88820813
-9.873338992	8.02560697	2.361419004
-9.74017509	7.934600158	0.008551362
-9.908974533	8.104320099	1.890984635
-9.81527624	8.089281832	3.887655648
-9.890081521	8.139634517	1.416828792
-9.778634209	8.109589685	3.882978829
-9.862765769	8.168036971	1.41649894
-9.753708146	8.139551501	3.882978827
-9.837660753	8.198257079	1.41649894
-9.879271319	8.284423763	1.904575208
-10.07634845	7.910481895	-0.114925843
-9.931344412	7.895618639	-0.113822427
-9.661323651	8.428332602	0.008726977
-9.891425588	8.03898266	2.236948369
-9.661723984	8.481022972	0.008750801
-9.868241121	8.070538434	2.237294312
-9.648401044	8.52187823	0.008762373
-9.850279099	8.106408556	2.238849993
-9.605766084	8.536824988	0.008747398
-9.836741295	8.146014145	2.241442796
-9.671814563	8.034223579	-0.112799745
-9.844300978	8.208850166	1.766986394
-9.652181197	8.118520336	-0.113149609
-9.947138663	7.933753275	2.107747362
-9.882145578	8.008724614	0.229799719
-9.927288558	8.06852423	2.119187401
-9.655167898	8.481647687	-0.115293648
-9.89344458	8.100195349	1.638436217
-9.811024326	8.051833933	3.593642472
-9.858203548	8.128056507	1.165937976
-9.784791698	8.080669759	3.593097684
-9.839352526	8.163349796	1.166665033
-9.784797567	8.143718402	3.089916583
-9.835170731	8.216782106	0.700812011
-9.76664457	8.268833765	0.231190579
-9.933625212	7.881810093	1.977807367
-9.897835179	7.929643315	0.110014593
-9.866822487	7.986369676	3.46362351
-9.932317934	8.098084075	1.047973715
-9.87034267	8.069024087	2.470503113
-9.719422748	7.984494001	0.109112477
-9.881837783	8.150259272	1.518797639
-9.822465339	8.119679524	2.96328146
-9.878954475	8.215838834	0.580767681
-9.825213641	8.196641272	1.995683754
-9.701016167	8.170803966	0.110023266
-9.67494598	8.353933662	0.110882012
-9.8662556	8.101111986	1.620027189
-33.70500995	28.46564605	3.25446807
-33.74528643	28.69614107	2.84281292
-33.9888539	28.57346365	2.428134827
-34.29409234	29.0279503	3.674183928
-12.95394159	11.79140341	0.65119375
-12.51212426	11.75382882	0.011685206
-12.19044911	11.73656286	0.011518439
-12.35127673	12.10354141	0.642872286
-11.8379555	11.7523803	0.011354395
-11.58062152	11.63033552	0.610143554
-12.5222019	11.76715372	0.473974825
-11.54283742	11.74414206	0.011208731
-12.36604418	11.76905562	-0.153150726
-11.2919115	11.70236065	0.011069192
-13.20635293	11.95891753	0.974257021
-13.14376803	11.9758408	0.972345977
-13.08856464	11.99923952	0.970980911
-12.99884597	11.99059383	0.967049627
-12.95541205	12.02430368	0.966558187
-11.68942687	11.75206312	0.457210631
-11.61817835	11.75232572	0.455832005
-11.53092626	11.73586283	0.453819186
-12.30032242	11.71034332	0.30682111
-10.49818763	11.6415166	0.010670314
-11.28778744	11.7068246	-0.145893294
-11.20474129	11.75938037	0.448028923
-11.92946109	11.71132622	0.30201629
-10.30587454	11.78687754	0.010657381
-10.92043931	11.67919166	-0.143444244
-10.20590609	11.81810368	0.010628793
-11.64599418	11.71713617	0.298457833
-11.33921829	13.28461582	0.649299156
-10.67521522	11.62966373	-0.141623158
-12.39927086	11.74429109	0.148146285
-11.41615892	11.69931236	0.29531485
-10.64958546	11.81328875	0.438709349
-11.70766889	12.13609171	0.922112493
-10.5083488	11.73371776	-0.141309176
-12.07053632	11.71726097	0.145925684
-11.13246225	11.69225488	0.291666092
-10.47212859	11.90705678	0.437385858
-10.49080887	12.00234982	0.439701975
-10.71381285	13.26653254	4.499089183
-9.88607627	12.26082707	0.010720684
-10.86701254	11.69759817	0.288450839
-10.65270691	13.35772472	4.507762853
-11.64074161	11.72386736	0.143314762
-11.09474075	13.989863	2.637587527
-9.877055567	12.48304419	0.010835038
-10.39335483	12.265578	0.443451852
-10.26354995	13.11558711	4.393984738
-10.64341304	11.74265661	0.286319407
-10.23038582	13.1561736	4.397046033
-10.6019835	11.76931136	0.286174895
-10.38743668	13.44304565	4.482252065
-10.55982344	11.79507834	0.286012323
-10.30315919	13.41886551	4.46362919
-10.30319033	12.4661669	0.446098835
-10.27852507	13.48141519	5.181689653
-10.26997221	12.50389738	0.446319402
-10.3631576	13.66983919	4.525875513
-10.24420414	12.55083477	0.446870864
-10.29848155	13.67144775	4.515926305
-10.36937405	12.7840535	0.454039783
-11.07562853	13.7000568	3.765517523
-10.49446187	13.01971377	0.461263806
-10.44866164	12.99989826	4.21968585
-9.576706112	12.86754755	1.774251741
-10.32986892	12.9331593	4.864022003
-9.336469108	12.625448	2.319598177
-10.1873124	12.80409615	-0.146790374
-9.831180004	13.38157129	3.722867172
-9.496394596	12.92446535	1.774031918
-10.25031843	12.99629861	4.864022003
-9.312489329	12.75600572	2.333042601
-10.63633803	11.67475848	0.136999963
-10.22914171	13.05160047	4.19540387
-11.39951347	13.51606842	2.265670796
-9.343245374	12.98305148	4.889092359
-9.8465204	13.66426915	3.125809949
-10.04680427	12.92724696	1.647737359
-10.16608847	13.13637325	4.88122009
-9.219457	12.87576139	2.339326361
-10.07251362	12.12039809	0.28471178
-9.956328524	14.00572398	4.533783856
-10.46120434	13.62341178	2.367862726
-10.06202181	12.18362212	0.285470428
-9.615444036	13.61445453	4.397556247
-11.00405338	13.37687744	2.219533938
-9.01576299	12.85790939	4.799939543
-10.13403646	14.43344371	3.273067991
-9.068726679	12.91473432	1.745556753
-9.566695074	12.68034681	4.667792067
-11.09823505	13.63946462	3.580112806
-10.90863363	13.4279783	2.216864843
-9.173979763	13.25584473	4.927384289
-9.068934197	13.08648103	3.569725911
-9.169638227	13.23031687	2.377905827
-11.50997519	13.27110442	0.794028928
-10.54832316	13.09736482	4.761555908
-9.984596296	14.50261798	3.267776053
-8.853089796	12.85766507	1.726756614
-9.446158835	12.76323218	4.666100251
-10.45331234	14.13075728	3.756947569
-9.881902322	13.37150177	2.292070412
-10.18865301	11.89679726	0.135872317
-9.996847311	13.59432049	4.269231137
-9.864016787	13.42399541	2.923538323
-9.717863918	13.24301024	1.653144693
-9.438745179	13.99254407	4.453169765
-9.627062513	13.1861139	2.865285275
-9.598641772	13.16502977	1.639726377
-9.493196366	14.16682392	4.499344293
-9.381830211	12.93335237	2.804093952
-9.661522659	13.33703612	1.657450532
-10.37518465	13.29479427	4.774904964
-9.829095105	14.75635525	3.290585559
-9.790539765	14.69680424	1.953348081
-9.43090212	13.16008011	4.757730709
-9.344730159	14.12289884	3.796812694
-9.480782141	13.24921044	2.2459121
-10.03434797	12.08707507	0.136271326
-9.791643243	13.75238227	4.271193322
-9.46133191	14.39489303	3.19697551
-10.98879069	13.28943701	2.04464865
-9.694523197	14.86913543	5.42547217
-10.20355884	13.34669649	4.077746506
-9.184321115	12.99361902	2.792512294
-8.732140694	13.37315846	1.766665738
-9.312138829	13.25024731	4.759140241
-9.439997086	14.5562484	3.889791408
-10.03062935	13.22149796	2.749207303
-8.681876334	13.38570918	1.764796774
-9.393928029	13.45417853	4.822013125
-9.469801746	14.70080579	3.920638481
-10.02683916	13.30105237	2.759339855
-8.620851475	13.38136675	1.760728877
-9.352059828	13.48214744	4.82173084
-9.959589429	13.27911602	4.028921241
-9.101373506	13.13102667	2.803920862
-10.812414	13.40782485	2.042293552
-9.630175283	15.08635061	0.012182782
-9.158217331	14.42001815	4.506997529
-10.06047901	13.51005047	3.42948686
-10.78178529	13.45410739	2.044295314
-9.871361685	12.34626594	0.137121392
-10.72240214	13.37990224	4.678444851
-8.995023555	13.14525015	3.404537728
-8.817533008	13.9673642	2.440013151
-9.661731452	14.1433922	1.723840689
-9.53049827	15.13415566	0.012173932
-8.944818638	14.2768317	4.445006314
-10.29198081	13.99943656	3.537618271
-10.30704162	14.04302007	2.232116718
-9.47973344	15.13354384	1.317324982
-9.028531616	13.36296472	4.739122617
-9.704698454	13.2755977	3.991417523
-10.37408918	15.36663917	3.253868935
-10.68819163	13.59180097	2.050182584
-9.405379607	15.12833713	0.662227166
-10.61013352	13.49242977	4.683446394
-8.900896844	13.26808714	3.414988808
-9.419552018	14.05552994	2.33249309
-9.861627432	13.62095849	1.534530715
-8.750329337	14.26699307	5.115628634
-9.262464492	13.89220578	4.224346452
-9.325931389	12.93314573	3.246341339
-10.36163992	14.39327577	2.272534387
-10.28356058	13.25705372	1.372032248
-9.340156309	15.32259648	4.734554234
-9.002311868	13.59888207	3.485847048
-10.95519956	14.18300243	2.795189943
-8.789749411	13.30046916	1.604478573
-9.428635956	14.33118036	5.041079748
-9.772224341	13.71820306	4.088124867
-10.78545493	14.03033627	3.429330847
-10.06212534	15.3173394	2.526412273
-9.689144562	13.64537441	1.52716978
-10.38136644	14.64501697	5.082752464
-10.30460604	13.47125548	3.943719213
-7.97665207	13.25935205	2.871803801
-9.218209334	14.12692321	2.325391793
-9.618531894	13.63434934	1.522625999
-10.01547434	13.14634161	4.509448993
-9.547896936	15.98198438	4.173977775
-9.39751817	14.48818612	3.03070986
-10.22068649	14.57131627	2.280668516
-10.08102615	13.33057842	1.366734468
-8.852603207	14.93203289	4.579958384
-9.077383476	14.08480179	3.581578783
-9.167516649	13.14083881	2.654254958
-9.657236129	12.83888179	1.904884817
-9.616073004	14.95100747	1.140826965
-8.664492586	14.71748351	4.505977098
-9.036764622	14.11670217	3.582623771
-9.147951878	13.19890348	2.660301731
-9.586887764	12.82708725	1.898761991
-8.316042811	14.23608526	5.039337072
-8.842326023	13.89977205	4.167933281
-9.121659429	13.24017264	3.273474088
-9.444317131	12.70360676	2.468945826
-8.10307696	13.84985807	1.774911444
-9.564353513	15.09054076	0.492807001
-8.900714473	15.33315472	4.677665176
-8.96616356	14.19751712	3.589103512
-9.079046242	13.27269978	2.663897083
-9.474394645	12.84012266	1.892050508
-9.494555468	15.06504986	1.142812277
-9.515358265	12.8955364	4.37283133
-7.79563651	13.51557767	3.498186985
-9.162140459	14.61143912	3.026734229
-8.73533371	12.86916861	1.993042966
-9.903038162	13.52143659	1.370565139
-10.00406565	14.77533568	5.05224013
-9.610428859	13.13911865	3.785182304
-7.851328311	13.70913983	2.932020705
-8.456826061	13.58905244	2.20644548
-9.674656885	14.35888962	1.579968766
-8.569330693	13.84285542	4.784232843
-9.079879466	13.52129994	3.953206179
-9.906179343	13.65055597	3.268384716
-7.729912002	13.59201535	2.309807042
-8.59094698	13.90921544	1.6453341
-8.525313875	13.86662854	4.783387407
-9.042667768	13.55556085	3.955093262
-9.807985065	13.60284303	3.24974086
-8.69017747	15.39020036	2.610844831
-8.520139409	13.88970833	1.639926648
-9.402015135	13.07477625	4.394153104
-7.631578048	13.61448038	3.49928085
-8.229102539	13.48844749	2.772979376
-9.140658305	13.82850632	2.124082346
-9.690043562	13.57704424	1.364044868
-9.047483909	14.92037727	4.414678391
-9.029623797	13.72854408	3.345495333
-9.189372883	12.93167481	2.47433957
-7.774792043	13.96856174	1.768314879
-8.526832758	15.45577289	5.395364672
-8.969640993	13.71792076	3.978208658
-9.917600975	14.02519211	3.32869198
-8.506057538	15.3933347	2.597985009
-8.269473003	13.76369985	1.615994191
-8.539659517	14.2798106	4.889396417
-9.87136499	14.0307404	3.98901517
-8.763217989	15.97627457	3.381823579
-8.059510976	13.49830371	2.167252087
-9.667395492	14.93413927	1.623407439
-9.332199933	13.31953596	4.437586296
-8.239024751	15.13052038	3.862663429
-8.026770977	13.52742783	2.760533688
-9.367473138	14.55687518	2.218135851
-9.643478142	15.00937347	0.975567488
-8.923785638	15.13215743	4.444601828
-9.004721992	14.06360646	3.39996015
-9.191399764	13.27661963	2.518568124
-7.703474382	14.24915397	1.791732709
-8.811245263	15.04663307	5.123970257
-9.249549241	13.40745318	3.787447041
-8.41264833	15.67765363	3.302081625
-7.9294352	13.56250268	2.165749813
-9.499129012	14.97454947	1.618227438
-9.277425834	14.65092151	4.910031077
-7.965467725	14.95423291	3.798781555
-8.219588249	14.14748593	2.871508237
-8.243233267	13.07267903	1.980333108
-9.866179629	14.47126252	1.432263338
-9.296936456	13.62190305	4.499972807
-7.901707342	13.69250428	3.379037192
-8.788401952	14.01616107	2.740545557
-8.754266627	12.91178675	1.849662187
-9.435270853	15.08933256	0.973165004
-9.477761945	15.19784043	4.347347376
-9.242142968	13.68414636	3.199897072
-7.424136321	14.14466352	2.359785061
-7.992256324	13.973516	1.620099759
-8.713054921	14.04399482	4.679553748
-8.915751982	15.67102924	3.85372453
-8.655009824	13.99346904	2.725673482
-9.106715937	13.61067421	1.941739085
-9.321539123	15.11294801	0.970980911
-9.356971635	14.01844026	3.919032639
-7.881283246	15.24413657	3.184932272
-8.034461958	14.23901969	2.253832841
-9.295899826	15.1634948	1.623043851
-8.398527313	16.37945615	4.856495803
-8.765991989	14.3607888	3.425496688
-8.741816955	13.22530421	2.472644412
-7.653019581	14.91268637	1.854069989
-8.349989599	16.40859257	4.857516234
-8.653823656	14.27532934	3.39876305
-8.701743704	13.25288801	2.472798433
-7.615802964	14.95292348	1.856158894
-10.13188636	15.44851242	5.040917382
-8.722185633	14.48818229	3.443053117
-8.661043698	13.27952215	2.472798433
-8.786889144	15.924771	1.83048544
-8.256950045	16.47507639	4.862108174
-9.152224845	14.10394891	3.258111735
-7.427324173	14.80682086	2.447027664
-7.86897211	14.36521375	1.64843831
-8.508816002	15.60935156	4.497826391
-8.292726322	15.22621409	3.042810078
-8.315085038	14.0308222	2.089892645
-8.787906836	14.86814336	4.890143629
-7.640942263	12.96063824	3.063196053
-8.62625617	13.49603974	2.498226013
-7.368346731	14.91692973	1.840327185
-8.852807292	15.0834004	4.95198512
-7.603618977	12.98824757	3.064193596
-8.790811842	13.84692688	2.558173741
-7.310298813	14.91447521	1.837248843
-9.560671238	15.11432155	0.155137671
-8.200067976	15.38649675	3.726639559
-8.71719478	13.82452133	2.54908141
-7.250596414	14.90823014	1.833730738
-9.512659643	15.14104223	0.155111639
-8.134533175	15.3770055	3.718278697
-8.706731721	13.90228042	2.558481779
-7.214759847	14.95099279	1.836259405
-9.458752224	15.15827887	0.154990209
-8.103686058	15.43305865	3.725803427
-8.691698443	13.97339358	2.566649522
-7.144820499	14.92285388	1.830102603
-9.406935055	15.17872678	0.154903469
-7.864802542	16.55908764	4.110096375
-8.053124718	14.16019715	2.698544072
-8.339359995	13.51493674	1.882984164
-8.5957368	15.17388817	4.937818765
-7.831015893	16.61932805	4.119065684
-7.95143365	14.08175008	2.678932712
-8.297338426	13.53961114	1.882866385
-7.677996034	14.94682189	4.251326376
-8.151219835	13.35488998	3.031912108
