x	y	z
3.005074289	0.654333136	-0.056152781
3.002486229	0.650531942	-0.281263749
2.552896838	0.650155865	-0.464370927
3.372741665	0.731691129	0.702655724
3.220700794	0.696058832	0.422223646
3.846748934	0.683286137	0.250734712
2.700651218	0.683882348	0.024166258
3.0492148	0.652705291	-0.171446139
3.617925633	0.634306726	-0.436886465
3.501279983	0.752427278	1.013989682
2.906981069	0.734037536	0.581003923
3.188248531	0.677592274	0.297436879
3.046946606	0.645116495	0.05626679
3.64196346	0.630937985	-0.167391476
2.708255225	0.673257905	-0.283024566
2.620878331	0.650370983	-0.476001907
3.431823781	0.722489121	0.714027514
2.806788369	0.69578782	0.34287456
3.13210809	0.653113863	0.057802161
3.745319767	0.63701448	-0.172051293
2.758620094	0.676798797	-0.288069563
2.621904963	0.642092888	-0.475828338
3.542446948	0.734435719	0.736571542
2.851352058	0.697556565	0.348055365
3.171314583	0.651143236	0.058488561
3.927574225	0.655621004	-0.180330393
2.718136928	0.658032211	-0.28362997
2.634392297	0.636590488	-0.477737892
3.543723411	0.723368173	0.736372045
2.886299541	0.696728133	0.352058682
3.196817682	0.646164826	0.058922077
3.178374168	0.63966584	-0.178253481
3.617596235	0.588585729	-0.435941583
3.716790541	0.751145379	1.073652143
3.028429211	0.725290329	0.603452645
3.385778751	0.676257303	0.315066801
2.83050466	0.670736512	0.025233183
2.826334247	0.666935553	-0.187434238
3.238468181	0.638492056	-0.424541774
3.731994307	0.739396861	0.923436878
3.067031179	0.722163527	0.491446757
3.407850036	0.66856465	0.189904495
2.813461003	0.655775738	-0.080592697
3.68392834	0.576198209	-0.443500585
3.168749155	0.744375861	0.888149068
3.748856341	0.72834741	0.632634744
2.975348389	0.687774824	0.249727152
3.358971787	0.645483348	-0.062450801
2.925778883	0.670401814	-0.304415362
4.226192213	0.813680998	1.218585607
3.128742737	0.71893266	0.622096557
3.627636174	0.689907015	0.336967901
2.874587014	0.653299509	0.025571475
3.39806025	0.638567687	-0.316547077
4.204088827	0.796057092	1.211502428
3.223808442	0.730371735	0.640550156
3.660081549	0.684449116	0.339785055
2.940347372	0.656878411	-0.084050653
3.273370246	0.603740156	-0.428113642
3.269556981	0.732534735	0.779095716
4.144804134	0.76351143	0.540044624
2.943962782	0.650095664	0.026152646
3.64588816	0.662005268	-0.339248757
4.276367563	0.779277783	1.055053231
3.25629399	0.71419266	0.519956495
3.827475182	0.69009395	0.21267338
3.016611805	0.654508913	-0.08611427
3.311189411	0.589730667	-0.432578449
3.37047078	0.73105213	0.668325742
3.91136021	0.694243509	0.362504051
3.029048935	0.649418486	0.026872603
3.673422836	0.643747542	-0.341436873
3.376159713	0.723851416	0.802876242
3.871970449	0.673612798	0.214912041
3.021549062	0.636192972	-0.086142157
3.337228346	0.573264543	-0.435512487
3.404881458	0.714001481	0.542610195
3.106402496	0.646091994	0.027523165
3.942423137	0.665981534	-0.366053145
3.593191915	0.747352316	0.853381581
3.262812127	0.668542631	0.150542651
3.11045206	0.633931129	-0.204889443
3.635029886	0.748658647	1.012658346
3.354653261	0.678471449	0.279883497
3.127058923	0.62732973	-0.205855605
3.681747808	0.746513336	1.025030362
3.414391072	0.67965637	0.284692191
3.252325959	0.64208674	-0.213971313
3.8051184	0.759381634	1.058724269
3.434065689	0.67262632	0.28615927
3.311098243	0.643141927	-0.217707109
3.786594649	0.739220588	0.897092469
3.46109132	0.665021243	0.159302478
3.350136473	0.638853052	-0.345885264
3.793343979	0.725787132	0.74841829
3.332956724	0.629442965	0.02942281
4.234653532	0.804648926	1.176126229
3.569445894	0.665090378	0.296917759
3.548697222	0.654177261	-0.365964371
4.252187532	0.783263565	0.674371566
3.569039241	0.649121198	-0.101201003
4.202644879	0.764072062	0.827749867
3.569909663	0.640221726	0.031461241
4.125586919	0.733799518	0.653567159
3.704885651	0.650369309	-0.104937827
3.722554832	0.644046542	0.032771042
3.757045864	0.63814869	0.033057289
3.869477309	0.642608885	-0.109427591
3.539684534	0.573072012	-0.496610526
3.048378209	0.782450217	0.397941246
2.452286767	1.100825752	0.34251818
2.437449039	1.645245466	0.375243545
2.456858561	2.359076654	0.443748927
2.446763518	3.308254955	0.537689805
3.146614192	0.70774196	0.282429924
2.391196326	0.978782474	0.227392573
2.387179588	1.498930441	0.251930203
2.393829608	2.159215289	0.291798417
2.401973915	3.037425754	0.356288134
2.4359753	4.421486125	0.467759566
2.491703342	0.83487603	0.134984569
2.419066561	1.298565512	0.144746673
2.444306989	1.919384132	0.166562657
2.426232117	2.698306721	0.199804581
2.422715128	3.808444002	0.255323135
2.668419218	0.696583207	0.043244478
2.379527967	1.080481352	0.045236178
2.690640006	1.831682928	0.059629141
2.406268713	2.33171169	0.065364286
2.412382904	3.292180301	0.081749785
3.826810007	0.718637677	-0.081258562
2.385198621	0.888281127	-0.050585442
2.390101216	1.391545982	-0.050567654
2.549149531	2.156492784	-0.060097966
2.389253835	2.829208869	-0.059105439
2.427218368	4.108740693	-0.075107872
2.417535207	0.718491731	-0.140708501
2.326523133	1.147439452	-0.141538976
2.417100027	1.765429142	-0.159644598
2.393659396	2.47863812	-0.180871122
2.418694554	3.51922599	-0.222505146
2.791423494	0.630407225	-0.263298401
2.429278416	0.995787961	-0.238189307
2.374570637	1.494744064	-0.252279882
2.480547848	2.24071435	-0.297746597
2.557087127	3.240401559	-0.363774448
2.47265209	1.548517931	-0.369896159
2.414850447	2.174607749	-0.405405565
2.420869471	4.931716934	0.525232093
2.452023419	5.462999695	0.351833214
2.416253083	5.412408287	0.131210128
2.445956608	5.459722902	-0.084822808
2.411357612	5.385156993	-0.298843012
11.59192535	2.096657886	3.600612313
11.57158763	2.063837922	2.635344663
11.76389434	2.060917657	2.216533225
12.85643082	2.207759927	3.441665592
11.50799982	1.975167898	0.86134486
11.93434372	2.015383194	2.246276894
4.94692579	0.819157858	-0.735885751
10.57437324	1.75294046	1.583370904
8.256038849	1.355598785	-0.300940236
11.98045184	1.947639297	2.252663414
8.578873593	1.385277877	0.005915095
12.96919312	2.067556702	2.944471281
9.035597785	1.433992821	0.340103758
12.27773026	1.910815173	3.797917996
11.52782352	1.80214288	1.290614765
7.571360801	1.167660524	-0.555723736
12.44921421	1.906408082	2.823708456
9.045214404	1.378675031	0.340140921
4.989241844	0.747725449	-0.740387034
10.47479317	1.571741846	1.564665536
9.154652389	1.359281018	-0.332896253
13.16600348	1.929579629	3.510799828
9.491661827	1.390230259	0.707659409
5.874860363	0.846662072	-0.649629723
13.23118672	1.901693131	2.996977013
9.452444821	1.354877686	0.70442234
5.886289487	0.829883254	-0.650608909
11.58971631	2.069706509	2.516406586
9.529642324	1.336118533	0.70986645
5.8868381	0.811549007	-0.650391292
13.23343683	1.8192119	2.479115766
9.818109104	1.714317914	1.003061985
9.154799647	1.244682835	-0.332321098
12.87519748	2.220844864	3.305551584
10.31495396	1.77181352	1.442786241
9.020524146	1.205462726	0.338320595
5.879879996	0.773856188	-0.64908577
13.24922458	1.73861838	2.480028194
9.840217883	1.656024392	1.004263616
9.159291452	1.188100931	-0.332213273
11.89016425	1.975886926	3.049485978
10.29924317	1.704122548	1.439098979
8.600888608	1.09250767	0.005901482
4.806123741	0.779118968	-0.761138169
12.04034108	1.95837286	2.140839693
11.65001719	1.451563782	0.866053269
9.146572171	1.129428821	-0.331494351
12.95796139	2.071709187	3.320022638
10.29287436	1.638248405	1.436777497
11.56380632	1.828947435	0.322931558
7.625263435	0.91378391	-0.557098398
12.41162794	1.945329153	3.17849999
10.28316938	1.604371937	1.434729004
11.56047263	1.79208333	0.322683395
7.639918518	0.891773239	-0.557966599
12.44053502	1.910773863	3.184386545
10.27922978	1.571468672	1.433499956
9.036890971	1.37250469	0.252124846
7.644600519	0.86855532	-0.558111319
11.75350775	1.315290407	3.614935309
13.23012975	1.488950958	2.470904391
9.821797751	1.467559898	0.999457096
8.598746026	0.958454319	0.005889229
7.020071603	1.036031485	-0.582782917
12.87003394	1.895984341	3.82281898
13.18801324	1.939771151	2.849168352
11.58567886	1.268512102	1.289185565
7.881751223	1.442648694	0.144758286
7.631935982	0.819715328	-0.556809017
11.80320197	1.247570381	3.627796562
11.80085671	1.254820604	2.660722177
10.28541322	1.475669075	1.432407403
9.02934769	1.286453268	0.251573384
7.61556696	0.794331125	-0.555434355
13.05908066	1.842038649	3.875541674
11.57156902	2.06763794	2.393259158
11.59027797	1.197093447	1.288855713
8.596260041	0.878155076	0.005881742
7.018449807	0.96987584	-0.581882588
11.68648894	2.064652688	3.360168693
11.88167369	1.189731837	2.216168207
11.44367982	1.999312842	1.488586206
9.304084729	1.272360896	0.602659965
8.131235528	1.102140971	-0.371609089
11.77705968	1.135304939	3.616396814
11.79539607	1.144553158	2.657003087
10.5237792	1.021719531	1.561889032
11.48651875	1.96616712	1.063430027
8.59153255	0.824437662	0.005874935
7.012411386	0.925228755	-0.580900363
11.9787484	2.040572339	3.440536019
11.8985388	1.117724378	2.217993061
11.4508411	1.928234646	1.487950701
9.287968047	1.212148647	0.601122881
9.106283753	1.181649293	-0.082379516
5.861512034	0.534728827	-0.644189845
13.14073221	1.18982303	3.481207315
13.26702173	1.700655251	2.347404358
11.60112565	1.054502809	1.28852586
11.53844747	1.898121109	0.63943979
9.144766792	1.496811271	-0.169188542
5.844310757	0.515085238	-0.642122697
13.11446004	1.146890872	3.47329897
13.27706325	1.660555767	2.348268625
11.60331654	1.018819149	1.28841595
11.65663095	1.442394375	0.323979319
9.098310232	0.784789439	-0.328474899
5.61745701	0.685352265	-0.673105128
11.89605983	1.007127688	2.676692647
10.49412484	0.888992383	1.555751306
11.52256795	1.827089307	1.064611391
11.65802379	1.406266382	0.323896588
9.092707676	0.756209921	-0.328187307
5.852315142	0.479621498	-0.642666708
12.45827932	1.955676483	3.060904381
12.4714875	1.949721536	2.091077611
9.776228741	1.155427688	0.990745281
11.60806047	0.938728955	0.432940376
8.576136361	1.322809293	-0.158436266
6.55677105	1.004424914	-0.607292633
12.24255638	1.892752261	3.507554054
13.28297847	1.537267494	2.346712943
11.58842086	0.910114261	1.285777371
11.65372704	0.9064437	0.43453781
8.594983049	1.298732654	-0.158710105
6.997553994	0.792519521	-0.578362934
11.74722644	0.878291369	3.600612315
13.20372766	1.984811879	2.718451848
10.27858568	1.15416567	1.425852442
11.6017926	0.870268654	0.858254955
9.103633382	1.011292897	-0.082173187
7.586614089	0.55670174	-0.55181683
5.384607983	0.789446863	-0.699958149
13.17755407	1.944489182	3.233090517
11.8470202	1.297466298	2.091575262
11.58585626	0.838418005	1.284897845
11.65009846	0.83427833	0.434203458
8.37658784	0.593245808	-0.302054544
6.574609306	0.945311032	-0.60811321
11.77341602	1.257227987	3.479416596
11.87798521	0.822309145	2.66947333
13.24541273	1.90450476	2.21675472
11.58355439	1.225095198	1.172291732
11.69313477	1.228843228	0.324310184
8.130416223	0.848982087	-0.370206621
5.892707005	0.392038823	-0.646365831
13.14221507	1.867013735	3.75846338
11.5631165	2.073755826	2.731591053
11.89052449	0.786530421	2.211606306
11.17359025	1.565666265	1.445753713
9.070316992	0.59362057	0.337911945
8.340180195	0.539257607	-0.300616702
6.58028571	0.90495221	-0.60811321
11.77613543	1.184483862	3.478006827
11.76702804	2.073084442	2.77824623
11.84578039	0.747076578	2.202847521
10.25944667	1.024695734	1.421345855
9.574266931	1.662659131	0.794660472
8.260138563	0.512112722	0.005633294
8.123938899	1.09662201	-0.450711752
5.607875918	0.544885724	-0.670152432
11.81853209	2.058393269	3.273305641
11.77618332	1.145308185	2.528947881
13.29366888	1.786721866	2.221984432
10.03012516	1.71518458	1.206536891
9.041967827	1.53678732	0.414556702
9.141773993	1.209690837	-0.168367056
7.040722703	0.666400514	-0.580818467
11.76426668	0.662075761	3.601489217
11.80974658	1.114712047	3.001167114
12.00495629	2.030728915	2.359401008
8.944282468	0.509478886	1.32339702
9.779259615	1.274985701	0.899944202
8.896801833	0.500075941	0.331262183
9.124618768	1.178948092	-0.167983708
7.041741625	0.644705898	-0.58073663
11.74905346	0.625065898	3.596227797
13.13093527	1.198785405	3.335965451
11.90653396	1.976525141	2.338854573
8.929997937	0.481184126	1.321058849
9.7781854	1.244348783	0.899489835
9.036004596	0.480095328	0.336388808
9.13216034	1.151448855	-0.168056724
8.067073217	1.311543666	-0.527521071
5.589902081	0.491249728	-0.667435891
11.95501309	1.968971721	3.305946575
11.77648416	1.036017591	2.526857665
13.30857126	1.664172033	2.221820878
10.06019185	1.625172605	1.208303097
9.304606189	0.809885171	0.59939369
8.5444569	0.424555369	0.005823203
8.119782858	0.697047799	-0.369075593
6.566702927	0.800655188	-0.605651539
11.76901912	1.001673844	3.470958456
8.935760413	0.426054836	2.005714578
11.89197781	1.007748985	2.094514007
10.28182722	1.248203853	1.327170152
9.300085752	0.780750832	0.598945345
11.54246448	0.538025824	0.007865238
8.113034635	0.968681967	-0.449229503
6.144843284	0.958167698	-0.630726026
11.80263656	0.968072133	3.479980456
10.81547757	0.482427135	2.427291076
11.8989402	0.97158073	2.095205421
10.29250365	1.217469418	1.32805993
11.42675397	0.505297084	0.843761907
8.773095723	1.352032891	0.077000676
8.114944378	0.6464986	-0.368668433
6.540825554	0.756799331	-0.602825264
5.158578486	0.786517258	-0.722691779
11.39891428	0.470027235	3.010022346
12.28408232	1.884604138	2.408293507
11.33410309	0.471317926	1.675728063
11.58419422	0.902586382	1.169387793
11.47350696	0.468489534	0.42688502
9.089970106	1.03297451	-0.167034445
8.119075716	1.217927013	-0.529904303
5.904264506	0.229318394	-0.646692227
11.7997442	0.894981232	3.477442968
11.4286176	0.439530148	2.564243236
11.89289252	0.89766235	2.09313118
11.38998487	1.276471917	1.468631643
11.41768017	0.434718995	0.842879043
8.773313099	1.297006716	0.076931281
9.732052398	0.359824049	-0.350294133
7.035517349	0.513747286	-0.579345159
5.407058577	0.590396509	-0.699575427
13.13457601	1.956801905	3.623405922
11.78221218	0.854617103	2.524976542
11.85070438	1.297581968	1.974879311
10.04856184	1.46550679	1.204064253
9.30000816	0.665924197	0.598368968
11.52021426	0.39538113	0.007846179
8.12951918	0.572414774	-0.369075593
6.562367529	0.698147399	-0.604192833
5.184229361	0.74167101	-0.725298289
11.41725322	0.365558672	3.013848962
11.78965616	0.818804503	2.526021531
11.85364829	1.261113998	1.974715875
10.04907833	1.434110192	1.203593257
9.292051029	0.636706839	0.597728516
8.154017808	0.254807994	0.005552974
8.123263914	0.546934185	-0.368713674
6.571412555	0.678727177	-0.60483102
5.185499686	0.725625224	-0.725161081
11.42122125	0.330613235	3.014614288
11.78040364	0.781853371	2.523513367
11.89377067	1.228491867	1.980762766
10.03966177	1.40135135	1.201944831
9.252136723	0.605459206	0.595038618
8.142766042	0.229452602	0.005544806
8.131881654	0.522458147	-0.369030353
6.567519049	0.657967544	-0.60428397
5.181812768	0.708907348	-0.724337999
11.82773946	0.751249859	2.998469166
13.25103062	1.825371495	2.592068929
11.40032349	0.29898842	1.684642295
8.422932547	0.526430063	0.84935323
8.089785719	0.206089843	0.300836724
9.125642305	0.895470502	-0.167417792
8.126912147	1.091914677	-0.529260156
5.936900959	0.139424844	-0.649956118
11.78352216	1.160478334	3.352540728
11.7771701	0.709085297	2.5218411
11.89421134	1.154822673	1.979618833
10.03035336	1.337360477	1.199825409
8.54339559	0.506453623	0.549246694
7.948068448	0.175166639	0.005411393
8.122966837	0.47185684	-0.368487474
6.578372462	0.618309965	-0.604922215
11.37908304	0.22082401	3.478721054
11.80594191	1.117185515	2.878339883
11.46586457	0.229715124	2.128397504
8.836129793	0.50063017	1.220052265
9.521186144	1.23502321	0.785124504
8.895833519	0.495290687	0.245755539
9.159152092	1.17652355	-0.257617754
7.490098751	0.135022817	-0.543424139
5.612218291	0.302841707	-0.66849888
11.39444822	0.189932821	3.006705944
13.27311251	1.704085136	2.593210241
11.42138543	0.194369796	1.687418799
8.9162547	0.474922818	0.898620163
7.93047234	0.129007833	0.294855666
9.325708185	0.828518862	-0.170941038
8.130675557	1.016327655	-0.528873679
5.93296308	0.084706202	-0.649412108
13.11146297	1.169518134	3.727133749
9.617003765	0.490237021	2.058232119
11.87190445	1.042454555	1.974225685
9.984093069	1.237778467	1.192878488
9.008169862	0.450847034	0.578835333
7.94334372	0.101930157	0.005407309
8.128961424	0.39717255	-0.368577954
6.582792458	0.55765397	-0.604831021
11.38350285	0.11611363	3.479597959
11.45786262	0.124072089	2.569056195
8.991180082	0.4294247	1.579744453
11.43966405	0.963109972	1.471046467
11.43929136	0.119478121	0.843909011
9.61794551	1.151536743	0.084026759
8.12914378	0.372185702	-0.368532714
6.584472519	0.537455635	-0.604831021
11.38954342	0.08122991	3.481351767
11.90495977	0.979315015	2.8993324
11.48945049	0.089161879	2.132411997
10.31619948	0.45756335	1.423530841
11.60387553	0.936810653	1.062339501
8.140173999	0.057487176	0.302619916
11.55477547	0.498759253	-0.103757109
8.118867557	0.939044012	-0.527521071
5.932497285	0.030092038	-0.649303328
11.92853072	0.953428104	3.38822913
11.31435277	0.472400618	2.420465759
11.89968367	0.934612003	1.977330732
9.991115639	1.145382515	1.192407491
11.427951	0.46655446	0.734015489
11.63776004	0.894627615	0.210869508
9.139369148	1.031742115	-0.256585938
7.508243914	0.020160283	-0.544654139
5.665816465	0.218633582	-0.674404329
12.09640765	0.929506854	3.43508744
11.42030698	0.441730699	2.44283109
11.88380352	0.896689531	1.974225686
10.28079054	1.146646402	1.22655368
11.43930077	0.431868281	0.734655941
8.825563079	0.651215878	0.159877168
9.144478578	1.003916186	-0.256641728
7.508270565	-0.002874779	-0.54465414
5.643636153	0.200439442	-0.671687848
11.75664318	1.311297938	3.227766498
11.44583694	-0.016524533	2.566212099
11.38769017	0.403891813	1.999787925
11.40808035	0.819598836	1.465581198
11.46083935	-0.020946849	0.845453964
11.48692993	0.39235701	0.317030997
11.66225449	0.820061817	-0.213457239
8.127167025	0.864280182	-0.527521071
5.929540726	-0.024498164	-0.648976933
11.39865427	0.373452033	3.351415861
11.95291976	0.835724747	2.90829551
11.86088685	1.264527166	2.311459563
11.43182913	-0.050978479	1.688734035
11.39665697	0.361837862	1.147558188
9.053593429	0.944302523	0.411441078
8.14187153	-0.045402209	0.005542083
8.185818961	0.249026861	-0.37088522
6.600884687	0.43698385	-0.605651539
5.180117952	0.531338602	-0.721182708
11.4333854	-0.090055135	3.016655149
11.42682133	0.336688687	2.443458131
11.86005235	0.785190444	1.968995856
10.41933484	1.065104201	1.241860512
11.4278282	0.326138434	0.733695234
8.84914185	0.571119112	0.160202296
9.155320619	0.919910017	-0.256697488
7.537846101	-0.072265786	-0.546824643
5.677006733	0.149323819	-0.675467319
11.80348666	0.761422462	3.348999023
11.79849585	1.19281743	2.757409879
11.50290885	-0.122482997	2.134966651
11.38348434	0.295092368	1.569789673
8.29442485	0.516163982	0.758359507
8.146848	-0.09243591	0.302879942
8.106194517	0.20050889	-0.072744798
8.116818948	0.492029117	-0.447088504
6.139723527	0.593668969	-0.625580119
11.62389234	-0.166743155	3.553258807
11.42572342	0.269093746	2.891529851
11.82057768	0.712863457	2.411014906
10.50848668	1.014657791	1.646631682
11.46499793	-0.156658318	1.26829652
8.472684898	0.498199686	0.464113919
9.916072855	0.941039176	0.08640348
8.160779385	-0.124045979	-0.293571284
7.139422487	0.148073144	-0.586466245
5.421572185	0.307209505	-0.698427322
11.80226289	1.133388272	3.235136971
11.7593683	-0.197382151	2.636876028
11.46738585	0.230671639	2.012925262
8.678120697	0.48979745	1.113770621
11.48609251	-0.197206797	0.847440348
8.797120277	0.486502661	0.159172701
8.156363939	-0.149009286	-0.293427488
6.577907145	0.35444763	-0.603098731
5.17342324	0.466573944	-0.719399337
11.71660107	-0.236100252	3.091911976
11.45649299	0.196892358	2.449101738
9.171520351	0.494238472	1.521526502
11.2327597	1.009135897	1.337234261
7.779964686	0.126508533	0.499355938
9.887794288	0.877173292	0.086108563
8.112029767	0.41684192	-0.446594412
6.1697056	0.539301191	-0.628102647
11.69165779	-0.275363297	3.574597032
11.41899278	0.163797654	2.889322337
9.384978469	0.479333025	1.913250558
10.49867822	0.916265096	1.643703663
11.51374812	-0.263331767	1.27390353
9.055335839	0.448870425	0.49578288
9.973133927	0.85391421	0.08682852
8.125238168	0.392530769	-0.447253192
6.170339725	0.520286666	-0.628001737
11.6945823	-0.311333314	3.575766238
11.42913511	0.12887321	2.891775185
8.895062245	0.42695412	1.813099256
10.49651745	0.883636897	1.642933096
11.71558156	-0.303912297	1.296331805
11.45848343	0.532758412	0.627263634
8.139019189	-0.220230942	0.005542083
8.065410537	0.07207952	-0.36527535
6.647545452	0.296867865	-0.609207253
5.206130714	0.421256042	-0.723377709
11.6859029	-0.343104029	3.084513846
11.43239477	0.091238369	2.443667224
10.48944935	0.468480751	1.739377783
11.25443954	0.906746388	1.338765027
11.66921977	-0.343633408	0.861197696
8.134732012	0.053135973	0.224386692
10.35986845	0.441497893	-0.189323959
8.104156054	0.636138658	-0.524687048
5.95740464	-0.189170492	-0.652349662
11.39310681	0.058554808	3.348032701
11.32674559	0.478190778	2.751676913
11.88051116	0.935740181	2.309366962
10.02400792	-0.32158994	1.48151491
11.42120694	0.047137396	1.149460768
11.42861358	0.461112079	0.625461786
11.65263941	0.889762218	0.101375116
8.148124699	-0.273936012	-0.293247779
7.16087131	0.01668106	-0.588103286
5.435228265	0.207704926	-0.699575426
11.74706384	0.910216505	3.214868056
11.76739481	-0.414280856	2.639938753
11.49135826	0.019592422	2.016728041
11.3638207	0.431724895	1.457192678
11.62140774	0.858865268	0.952940487
8.127145183	-0.291803868	0.302322697
8.136672909	0.00151775	-0.072995987
8.123456529	0.29257643	-0.446923788
6.188167611	0.445384991	-0.629212545
11.68796995	-0.454746037	3.575181636
11.41104307	0.411624868	2.771489975
11.87036169	0.861687864	2.30632307
9.983293222	-0.381616327	1.475815634
11.44018505	-0.022980673	1.151363348
11.4302292	0.390944614	0.625407187
11.63094759	0.81635586	0.101140914
8.146290177	-0.323926804	-0.293247779
7.164825444	-0.027272711	-0.588430694
5.421531005	0.17387419	-0.69766194
11.68177942	-0.486522444	3.084768956
11.47763662	-0.04925461	2.453282168
11.43311648	0.370111577	1.894962474
11.31623839	0.772083795	1.344887737
11.77373053	-0.491381297	0.869290278
8.120777121	-0.046613381	0.224000678
8.133903582	0.246683763	-0.148578507
8.121309845	0.537299106	-0.525331136
5.964565459	-0.262700149	-0.653437625
11.41407414	-0.081411089	3.354235397
11.40461156	0.341338605	2.769367332
11.93615978	0.792870788	2.318118116
9.957044667	-0.44181301	1.472308378
11.46768699	-0.093402801	1.15416715
11.41943744	0.32043858	0.624697356
8.77470292	0.561797553	0.076272046
8.135163923	-0.373492899	-0.292924245
7.185452096	-0.071442831	-0.590149574
5.454223678	0.141427727	-0.701744082
11.84014011	0.77138729	3.237506137
11.74583015	-0.557912965	2.636438528
11.4917182	-0.121436104	2.016900894
11.39999362	0.293056474	1.461259861
8.215961674	0.505901212	0.673138522
8.134931015	-0.392091792	0.302768511
8.130078711	-0.098259346	-0.072942164
8.144402508	0.193293516	-0.447911972
6.162380161	0.367576729	-0.626084613
11.673869	-0.597749937	3.572843227
11.43757964	-0.15176638	2.893982465
11.44891435	0.268165437	2.331611983
10.30594443	0.613329475	1.610262479
9.369830333	-0.473379361	1.037747067
11.47619517	-0.165500941	0.736577238
7.915877917	0.170206824	0.143042283
8.366039108	0.478981314	-0.233774585
7.536755335	-0.396332495	-0.547475765
5.698040171	-0.094905412	-0.677829511
11.38760547	0.244501553	3.225042817
11.83591508	0.684941715	2.756730623
11.64020106	-0.624502046	2.163432875
11.41834236	-0.194523583	1.57429626
7.741401941	0.148642508	0.70656027
8.761849616	0.48096668	0.396630664
8.121848653	-0.444413114	0.005536638
8.136240047	-0.151962138	-0.368532713
6.721910326	0.114397523	-0.615498048
5.205884937	0.276837846	-0.722005849
11.77449643	0.65834163	3.217763649
11.74409495	-0.666216123	2.637313526
11.50291589	-0.227451051	2.01914799
11.41311686	0.188301313	1.462657947
8.92893141	0.46735458	0.731169128
8.123104411	-0.171258458	0.224110962
7.926789714	0.118742225	-0.14474493
8.123612479	0.412408462	-0.525009092
5.966780754	-0.354573729	-0.654199254
11.6888733	-0.706437265	3.579274088
11.73130759	-0.263672735	2.968791062
11.47833168	0.163171072	2.337198129
8.954291904	0.450226469	1.398365581
11.77802985	-0.703779511	1.305127185
11.64478712	-0.275149078	0.747528876
7.958099506	0.097847808	0.143782871
9.720011481	0.466790003	-0.271477473
7.523829192	-0.465128275	-0.546824643
5.690969204	-0.147190707	-0.67712087
11.72715147	-0.299578531	3.447275388
11.43908566	0.131706002	2.776679155
8.900995634	0.42686914	1.726840992
10.01238858	-0.62910919	1.481953245
11.76837952	-0.312552853	1.184808707
11.45834688	0.11052688	0.6266084
11.524611	0.525074232	0.100073984
8.147854748	-0.524519604	-0.293679109
7.187900887	-0.203832653	-0.590558819
5.42714027	0.04079316	-0.698044601
11.39744599	0.104810485	3.227222203
8.977925676	0.40907877	2.089742965
11.72486378	-0.77344641	2.180768052
9.399035508	-0.275529461	1.296254301
11.45214097	0.079327678	1.045073107
11.41199145	0.48606099	0.516288151
8.130749565	-0.545050499	0.005546848
8.121781234	-0.251423974	-0.367989805
6.71982043	0.031886551	-0.61522458
5.205920878	0.21281141	-0.721594278
11.4057997	0.497408369	3.115102515
11.7447694	-0.810956263	2.639501254
11.36734274	-0.364364033	1.995985146
11.40663298	0.048197113	1.46164121
11.4167103	0.457164116	0.934357666
8.122640724	-0.566552473	0.302694213
8.126094338	-0.272822655	-0.072942164
8.142681304	0.018346396	-0.447692359
6.181776882	0.235653187	-0.627396332
5.019012647	-0.36266478	-0.738499414
5.480606717	-0.396959243	1.449780171
11.7414407	-0.41077672	2.511181166
11.49335053	0.019319997	1.903951095
11.39810675	0.426976205	1.352423432
11.77997365	-0.854254478	0.871276663
8.114527378	-0.295658306	0.223973096
8.152641125	-0.002943633	-0.148852331
8.126988841	0.287679554	-0.524880287
5.98443053	-0.447838058	-0.656810354
11.68619811	-0.886375456	3.582197101
11.73557003	-0.443957127	2.971243674
11.4785048	-0.012915526	2.33699881
11.39125265	0.397698017	1.777776564
9.390080281	-0.705791316	1.041595141
11.77680935	-0.459103115	0.756367053
8.127635947	-0.024749168	0.146835552
9.497239637	0.310165903	-0.265091402
7.53470289	-0.581942374	-0.548199305
5.697963273	-0.234877319	-0.678301937
11.41807903	-0.035123752	3.232943294
11.417909	0.379918187	2.656399316
6.911460685	-0.541182564	1.286636633
9.3969267	-0.390931691	1.296527411
11.4452807	-0.061176421	1.044436888
8.118078631	-0.641365987	0.302731347
8.132230498	-0.347986439	-0.073022898
8.166468225	-0.05676419	-0.44900992
6.21550716	0.17966755	-0.630625116
11.6891179	-0.958767543	3.584827813
11.72778255	-0.515743927	2.97001725
11.4791895	-0.08335318	2.337198131
11.45076255	0.32944318	1.786714759
11.74038759	-0.954928053	1.30292837
11.79171477	-0.532165462	0.757519866
8.128331079	-0.074628117	0.146853613
8.129978198	0.215584405	-0.226886568
7.532978234	-0.628329294	-0.548343966
5.697406716	-0.269881924	-0.678420072
11.4320806	-0.10531606	3.237029788
11.43560406	0.310274746	2.660023041
11.69982364	-0.988386842	2.17912559
9.375549776	-0.44768505	1.2939327
11.47157644	-0.131710891	1.046890572
7.903621554	0.190977811	0.357346883
8.131296239	-0.695641587	0.005555016
8.119768119	-0.401073934	-0.368170765
6.725243361	-0.091890399	-0.615771573
5.239655429	0.117640625	-0.725847011
11.40144999	0.28708917	3.111943708
6.433064796	-0.563339978	1.447842517
11.39510762	-0.575375718	2.002380964
11.45021809	-0.16240289	1.467360634
7.925685407	0.171334571	0.648279928
8.109037362	-0.420093919	0.223973096
8.135641282	-0.127747158	-0.148560253
7.955843671	0.159484077	-0.513608453
6.003588245	-0.541995052	-0.65974791
11.67313196	-1.065702093	3.582781704
11.72157137	-0.623610198	2.969772155
11.75814861	-0.193615409	2.394256465
11.46615146	0.224290431	1.788718189
9.400916957	-0.851807593	1.044123809
11.78631771	-0.640670999	0.757519866
8.135836887	-0.746343311	0.005561142
8.154175574	-0.156763933	-0.448406035
5.995958243	-0.559856728	-0.659095119
11.67932861	-1.102408425	3.585704717
11.7302494	-0.660167768	2.972470098
11.75651927	-0.229668838	2.394057145
11.45987	0.18899766	1.787639463
9.404196656	-0.881201588	1.044783394
11.78429676	-0.676827897	0.757519866
8.132513159	-0.771205815	0.005560462
8.141677672	-0.181512782	-0.447747256
6.23344868	0.08452128	-0.632239508
5.026326844	-0.487447311	-0.741113077
5.291173435	-0.514043653	1.40258521
11.7629654	-0.70089634	2.518705894
11.72904669	-0.268204665	1.943500922
11.4557931	0.147777326	1.35842848
10.43926258	-1.015106095	0.773724303
8.116800764	-0.495440557	0.224303976
8.130122736	-0.202520612	-0.148487223
7.962961604	0.086318588	-0.513994929
5.990431815	-0.596439738	-0.658877503
11.71296563	-0.731318314	3.448685155
11.76454017	-0.297734246	2.856403706
11.48855844	0.127588022	2.226420661
10.2895696	-1.027891451	1.527547339
11.74393583	-0.745187397	1.184308028
10.20797463	-0.277417582	0.558410971
8.130385865	0.070850795	0.070529735
8.130981356	-0.824870994	-0.293966701
7.15364799	-0.46683339	-0.588758103
5.440826973	-0.159457346	-0.700085703
11.73213639	-0.324122102	3.323117969
11.4247679	0.099602729	2.656625814
6.435445307	-0.66316552	1.20069055
9.399328844	-0.622407917	1.298575901
11.76882017	-0.351860276	1.07442601
10.59400809	0.060925328	0.47885566
8.132032791	-0.846747758	0.005565226
8.116990324	-0.550870196	-0.368442234
6.703501421	-0.215057867	-0.614039342
5.265696478	0.021275832	-0.729276662
11.4173443	0.07726199	3.115365731
6.499231524	-0.689896236	1.465344349
11.37177694	-0.784279416	2.000479574
9.405063663	-0.306621528	1.205790419
11.46467084	0.03676156	0.937536322
8.121125137	-0.867794852	0.303622943
8.133487951	-0.573353995	-0.073148493
8.137838922	-0.281375513	-0.447692359
6.232026987	0.008018348	-0.632037746
5.611407867	-0.616636741	1.725476057
11.72454484	-0.84043868	2.973941855
11.77413679	-0.410763293	2.398645748
11.48809873	0.013220814	1.791800345
11.71251197	-1.279018092	1.30325822
11.78745771	-0.858597518	0.758480514
8.130166713	-0.299265254	0.146980064
8.156821123	-0.008977795	-0.227555839
7.494917179	-0.834075721	-0.547041664
5.707588615	-0.428560931	-0.680782265
11.70406665	-0.875070913	3.448966969
11.76097244	-0.442117337	2.85663974
11.48827766	-0.013402731	2.226230404
10.44527168	-1.173072936	1.552682499
11.72100986	-0.888270045	1.183006263
11.77024019	-0.464479324	0.644135504
8.140642655	-0.028962448	0.070616482
8.124218335	-0.925040791	-0.294110467
7.09968485	-0.550883653	-0.584829203
5.469180495	-0.227490453	-0.704040233
11.43493671	-0.027866036	3.12010406
6.094209923	-0.703682512	1.375428477
11.41906646	-0.893210596	2.010159607
9.371121814	-0.391885703	1.201850315
11.4635274	-0.068752043	0.937454843
8.128676641	-0.944348097	0.304217321
8.128863046	-0.648267839	-0.073157463
8.119941884	-0.355606984	-0.446868892
6.227857308	-0.049308533	-0.631634104
5.030420287	-0.597136756	-0.743436288
5.547757314	-0.659507711	1.474015536
6.705974167	-0.544309975	1.438066056
11.32536298	-0.502478356	1.877965853
11.45036741	-0.098208281	1.357722046
11.75890275	-1.398918533	0.873557315
8.112259263	-0.670285653	0.224524558
8.126894879	-0.377199886	-0.148541985
8.112659535	-0.086290678	-0.523656485
6.010781819	-0.729130941	-0.662685406
5.573042392	-0.681735143	1.716122301
5.685200757	-0.477718146	1.443434771
11.76820927	-0.555219105	2.398645747
11.51999962	-0.12811942	1.796885814
9.413777263	-1.145058723	1.048961204
10.43366811	-0.888828889	0.672020282
8.128878128	-0.399159484	0.147034245
8.158096149	-0.109100601	-0.227611614
7.492036281	-0.926966847	-0.547620485
5.710802723	-0.499348033	-0.681845254
11.71382168	-0.575559263	3.320666308
11.50997837	-0.146850096	2.676556176
5.994340782	-0.748118733	1.121131105
9.405506678	-0.826012972	1.301580216
11.77844143	-0.605526297	1.076243476
11.48784871	-0.180659834	0.519313444
8.118919648	-1.022054758	0.005569991
8.134134158	-0.727807966	-0.369844702
6.721202999	-0.360238941	-0.616227429
5.24909292	-0.091528748	-0.727081721
5.568306258	-0.713983264	1.481158558
6.682175723	-0.60433348	1.434094716
11.31730335	-0.606534566	1.877475546
11.46089306	-0.203802357	1.359134916
10.37932078	-0.948382385	0.668882097
8.120285792	-0.448698868	0.146925869
8.162270248	-0.159253175	-0.227751059
7.478294907	-0.971891365	-0.547041664
5.699721892	-0.533638942	-0.680900342
5.620884882	-0.524454836	1.658932555
11.75278187	-0.65863224	2.857111332
11.75208446	-0.23006954	2.277786513
10.38757899	-1.360640563	1.547567825
11.73536277	-1.106948378	1.186310744
11.77165886	-0.681745067	0.644790738
8.152725657	-0.179107621	0.070737919
8.129591123	-1.077575888	-0.294973185
7.081397854	-0.680804649	-0.584256283
5.459116601	-0.327824377	-0.703402404
11.71859459	-0.683962706	3.323662993
11.76716476	-0.258468451	2.736800258
6.004741811	-0.80561076	1.124415677
9.402435879	-0.913022712	1.302263046
11.76938785	-0.713725697	1.075970845
10.34122452	-0.257847262	0.467567225
8.101241786	-1.095663795	0.005564545
8.125102394	-0.802445335	-0.369754192
6.742449699	-0.423645182	-0.61850671
5.253969151	-0.139994546	-0.727904801
11.74032795	-0.280795827	3.204338539
6.717654669	-0.922246058	1.520256441
11.39039142	-1.137533365	2.008949396
9.392221783	-0.59503841	1.205917496
11.66962628	-0.32068171	0.954652094
8.106523266	-1.118686183	0.304217321
8.125006052	-0.823888814	-0.073265109
8.115414539	-0.530218773	-0.4471434
6.26613559	-0.184233456	-0.635771024
5.006639994	-0.703645663	-0.741984261
6.058929461	-0.852591915	1.614325108
6.13339008	-0.630673266	1.317878893
11.31688333	-0.745888649	1.878782915
11.73446297	-0.352754836	1.391985896
11.88909631	-1.674051243	0.885696159
8.115879559	-0.846408169	0.225076005
8.133879395	-0.552782993	-0.148852331
8.135865331	-0.26134774	-0.525395569
6.001610437	-0.85916574	-0.663555812
5.479501847	-0.790062815	1.692153249
5.56661776	-0.588381325	1.416209395
11.74477508	-0.807197904	2.396850218
10.60507686	-0.345813536	1.654953444
9.404727031	-1.349487931	1.050940197
11.74945754	-0.825240583	0.644080906
8.142918291	-0.278901036	0.070677197
8.122679074	-1.178261611	-0.295224806
7.052693537	-0.76550217	-0.582619242
5.443800572	-0.394003879	-0.70199919
11.69396269	-0.826630828	3.319303988
11.76894795	-0.403050242	2.738159008
11.69404844	-1.715240855	2.193541328
9.424004635	-1.032002724	1.306906247
11.77364804	-0.859115091	1.077243165
11.76383661	-0.437823783	0.532091965
8.119831213	-1.199819793	0.005587008
8.098757409	-0.900326428	-0.369030353
6.742701759	-0.506801359	-0.619053762
5.255814656	-0.204612418	-0.72845358
5.408260287	-0.811861869	1.442892258
6.191465778	-0.694289248	1.331674269
11.38922475	-0.856004044	1.892020747
9.371080444	-0.36806278	1.111987355
12.02013295	-1.805476934	0.896657929
8.100793123	-0.920279051	0.224883006
8.11648417	-0.626698139	-0.148633269
8.130124237	-0.336093539	-0.525202331
6.016050957	-0.917814914	-0.666058135
5.632689001	-0.865142366	1.741845162
5.767070983	-0.66329511	1.46869796
11.75834088	-0.91693573	2.401239267
10.54320075	-0.440969357	1.645861114
9.362432455	-1.431482872	1.047641914
10.29146124	-1.195677603	0.664911296
8.118787782	-0.648801252	0.147142621
8.13193636	-0.358460855	-0.227081773
7.487672881	-1.160625059	-0.549646326
5.730270119	-0.678729193	-0.686333424
11.71846889	-0.93683122	3.328566786
11.757928	-0.511055594	2.736573761
6.56309707	-1.024442165	1.232806365
9.417058708	-1.11904594	1.307315852
11.76027994	-0.967032442	1.07678874
11.80022256	-0.547976688	0.533943226
8.114371618	-1.275433553	0.005591092
8.105997128	-0.976739413	-0.369754192
6.678213029	-0.56381149	-0.613583485
5.232931599	-0.251976516	-0.72557265
11.71520711	-0.532099703	3.199863659
6.095956597	-0.970692646	1.383960645
7.034866054	-0.855493869	1.243709442
9.351581646	-0.794407639	1.202612896
11.78846516	-0.577493133	0.965166055
8.104312944	-1.296296356	0.305108917
8.121319923	-1.000131353	-0.073408645
8.11011498	-0.705059389	-0.447582567
6.281600205	-0.319812801	-0.637889909
4.998187701	-0.812266107	-0.743145894
5.514322584	-0.897110491	1.474015535
5.972871084	-0.744102672	1.286525659
11.41717443	-0.999143143	1.898557828
9.34403994	-0.481907413	1.109396937
10.30576475	-1.293578485	0.66657647
8.12044044	-0.724207617	0.147287132
8.135280303	-0.433662495	-0.227276978
7.476673893	-1.229490574	-0.549646327
5.72181022	-0.731188742	-0.686097209
5.530511921	-0.70495554	1.63835095
5.741433107	-0.516563354	1.399189707
11.78174553	-0.628822204	2.28634741
10.20106768	-1.688066921	1.52740119
11.75980668	-1.076046842	1.077606634
11.78470507	-0.656004591	0.533491721
8.111167617	-1.351541502	0.005597218
8.097654967	-1.051432295	-0.369799462
6.67174987	-0.625159342	-0.613492291
5.238302272	-0.300582413	-0.726670151
11.71559315	-0.640216898	3.20144318
6.722766719	-1.13404249	1.528569858
11.44486889	-1.498801923	2.025716659
9.38831253	-0.884630907	1.208332437
11.95143039	-2.020769335	0.89415662
8.112210643	-1.073165179	0.225710184
8.116512212	-0.77722889	-0.148870585
8.113595059	-0.485149506	-0.524622616
6.014793753	-1.03125093	-0.667907726
5.498951447	-0.948518142	1.705599338
5.445435127	-0.728093718	1.389965229
5.9653212	-0.575833371	1.220171086
10.64967738	-0.641976002	1.664045776
9.412864755	-1.617034856	1.056437295
10.31604929	-1.011440669	0.566819578
8.127124065	-0.503296549	0.070633827
8.105762099	-1.405308191	-0.295907786
7.035783369	-0.960866194	-0.583192162
5.470323413	-0.548102178	-0.707101883
5.439791943	-0.535817697	1.547682758
11.7455573	-0.72733386	2.736347265
6.586710415	-1.152700823	1.241017739
9.400753397	-1.293003547	1.308135295
11.78816674	-0.758891202	0.965981089
8.091349706	-1.421841216	0.305406106
8.115918542	-1.126100093	-0.073507328
8.107285476	-0.830294725	-0.44807666
6.279926446	-0.416393234	-0.638293551
4.997802872	-0.891096429	-0.745033514
5.375217984	-0.959335487	1.440596288
6.133136656	-0.859800394	1.323731472
11.40443114	-1.174560275	1.899211572
9.356356407	-0.626574304	1.111869695
12.00508667	-1.694309906	0.778078164
8.117325465	-0.849620306	0.147449704
8.147615936	-0.55977055	-0.227834714
7.53938625	-1.358893149	-0.555723736
5.720733914	-0.820421384	-0.687396413
5.643466346	-0.807508957	1.675285087
5.772457569	-0.608750194	1.408860443
11.76777552	-0.809268768	2.285776637
10.21291014	-1.851402972	1.533246617
11.74785837	-1.256942059	1.078151897
10.57450611	-0.751503334	0.479171743
8.110140318	-1.479570327	0.005611512
8.116162613	-1.180697381	-0.371428129
6.662365234	-0.727533273	-0.613583486
5.255797625	-0.382552341	-0.729825382
11.7178675	-0.820793229	3.205128416
6.301557284	-1.16267105	1.436685008
11.39032124	-1.669752125	2.020357964
9.38897967	-0.686651992	1.116226198
11.99249008	-1.767648776	0.777950073
8.115934428	-0.899851994	0.147521959
8.135057072	-0.609081122	-0.227583734
7.524042724	-1.403847783	-0.555217275
5.752910366	-0.861093483	-0.691884524
5.855705103	-0.874576149	1.739849198
5.699077309	-0.636393029	1.391877649
11.76552475	-0.881679319	2.286347409
10.37345471	-1.946323109	1.559112411
11.8580765	-1.78333092	1.206838702
10.31122604	-1.170913611	0.567474811
8.125427086	-0.628440744	0.070694549
8.110746088	-1.534681036	-0.29691427
7.046819421	-1.072726167	-0.585402182
5.465213464	-0.632404187	-0.707612101
11.7385016	-1.338341284	3.345185039
11.72427819	-0.90673987	2.734308786
6.788451483	-1.295626449	1.282622258
9.422898504	-1.443652374	1.314144039
11.83075457	-1.376058487	1.08687599
10.47652671	-0.841518054	0.475062748
8.106982095	-1.556225073	0.005619
8.114824391	-1.256875578	-0.371880528
6.667253852	-0.79022772	-0.614677529
5.254028729	-0.431071218	-0.730099802
5.273072365	-0.418162881	1.443307985
6.291547224	-1.22080567	1.436903757
6.57282475	-1.02541716	1.16747939
9.344076305	-1.112420101	1.205790419
11.76723443	-0.975332579	0.965573572
8.077539497	-1.573210085	0.305926215
8.11455886	-1.278565195	-0.073695715
8.10648914	-0.981302547	-0.448955024
6.312833949	-0.535447097	-0.642531322
4.976671118	-0.982172355	-0.744452725
5.327242636	-1.052304416	1.43268794
5.938568369	-0.944289245	1.285271575
11.10764366	-1.351045472	1.853614852
9.379846839	-0.801817518	1.116226199
12.19851289	-1.951251232	0.792808439
8.114203925	-1.000602896	0.147702591
8.118007148	-0.708083183	-0.227332753
7.550265148	-1.504846648	-0.558473059
5.70858392	-0.926218503	-0.687868839
5.76686966	-0.933793447	1.716730222
5.365840705	-0.665946552	1.312389013
6.748323992	-0.589062973	1.312680742
10.40213802	-2.084163721	1.567149858
11.88576741	-1.493454278	1.0931464
10.35192289	-0.927475724	0.46977975
8.099177651	-1.632156705	0.005623764
8.09995463	-1.331023315	-0.371744808
6.666613234	-0.852442172	-0.615315717
5.227150212	-0.477337889	-0.72694451
5.208459319	-0.46131509	1.426724304
6.516215684	-1.326745817	1.490940849
6.56310897	-1.0858684	1.167479391
9.352134191	-1.200773582	1.208205242
11.76073685	-1.083868447	0.965818071
8.073487419	-1.649687804	0.306334865
8.105406339	-1.353689565	-0.073722627
8.101074471	-1.056387609	-0.449174607
6.317543981	-0.594458236	-0.643540311
4.94513672	-1.023323494	-0.741113078
5.252001614	-1.087759696	1.415085498
5.846694001	-0.984935679	1.267295767
11.37156918	-1.489480316	1.899865315
9.348343192	-0.885864997	1.113400343
11.98915539	-2.031103009	0.780383791
8.108616112	-1.075767628	0.147774833
8.125076139	-0.784113665	-0.227723164
7.560503066	-1.57937231	-0.560281822
5.705689759	-0.979727975	-0.68857748
5.650227484	-0.968355062	1.684589132
5.364300224	-0.71594702	1.313568349
6.200275593	-0.598773001	1.207095525
10.48417194	-2.201157022	1.582494001
11.88372125	-2.049057493	1.213647937
12.11227004	-1.639593952	0.668378679
8.133940158	-0.805145948	0.070902726
8.096451615	-1.712841643	-0.297669133
7.034922656	-1.226027198	-0.586466245
5.466094475	-0.751781007	-0.709653202
5.314368114	-0.721821997	1.518532514
6.076408977	-0.601455743	1.419811315
6.727331071	-1.434337611	1.276600521
9.408264585	-1.648916913	1.316738749
11.87641029	-1.640561218	1.094055132
10.33280539	-1.05373047	0.469463667
8.104938712	-1.737081365	0.005642143
8.110555032	-1.435195919	-0.373011556
6.664525631	-0.935433387	-0.616136292
5.21991378	-0.541344931	-0.726807301
5.355982401	-0.54070008	1.468841659
6.600535833	-1.428488234	1.514130754
6.751954916	-1.202417592	1.203606602
9.356338429	-1.318215801	1.21074726
11.7554719	-1.229041856	0.966551625
8.062400707	-1.750758306	0.306706351
8.102947403	-1.455705656	-0.073857192
8.086512751	-1.15557937	-0.449119712
6.326591136	-0.673730507	-0.645255612
4.964095725	-1.090939054	-0.745904754
7.625550801	-1.677200828	2.059999171
6.246013624	-1.131197743	1.356756857
11.00673429	-1.579311739	1.842011377
9.346642343	-1.001574899	1.114577773
10.75090651	-2.365590504	0.812053666
8.106816203	-1.480334617	0.227309391
8.117079757	-1.181608487	-0.149765087
8.108785131	-0.885823123	-0.526490506
6.000613157	-1.334854263	-0.672803592
5.427120322	-1.213024276	1.699753197
5.383127878	-0.990726651	1.384814436
5.877523963	-0.860181727	1.209397784
10.81749516	-1.187037027	1.697332824
9.47837679	-2.111753991	1.074138086
11.28442952	-2.090261299	0.736513222
8.101050227	-1.201487656	0.147955464
8.120039861	-0.909543803	-0.227946264
7.553875146	-1.699317757	-0.561656484
5.704629802	-1.069879075	-0.690349108
5.766735978	-1.079628759	1.724060642
6.116807428	-0.912085974	1.50108623
6.851837104	-0.767947437	1.33608069
10.50224533	-2.373711934	1.590531449
11.74137872	-2.21048572	1.202432727
10.38559449	-1.188057498	0.472488989
8.098614964	-1.839955475	0.005653034
8.089387876	-1.534058461	-0.372875836
6.661404586	-1.018501466	-0.616956811
5.221733285	-0.606388929	-0.728042011
6.170276581	-0.934681272	1.766989945
6.079048184	-0.696032693	1.422755663
5.781657551	-1.325742999	1.100876371
9.412027453	-1.798802926	1.320972227
11.90496809	-1.831020547	1.099144177
10.46028104	-1.229124527	0.476056119
8.103650965	-1.867262851	0.005660521
8.077776454	-1.557545099	-0.372559156
6.661199887	-1.039394173	-0.617230336
5.223782603	-0.622875254	-0.728590732
6.124590568	-0.946990869	1.75473058
6.088492594	-0.716044834	1.425473399
5.757452103	-1.338798174	1.097044387
9.413272432	-1.828992784	1.321928168
11.90814934	-1.868925427	1.099962072
10.46836247	-1.262645893	0.476597985
8.111516939	-1.895301175	0.005670051
8.07394077	-1.582512227	-0.372604397
6.667814394	-1.061391095	-0.618142049
5.228729618	-0.639740711	-0.729551023
5.781771799	-1.364974991	1.567385141
6.596363778	-1.299453916	1.437020949
11.47810225	-1.82705369	1.925360249
9.385375394	-1.151599772	1.121171477
11.82370914	-2.792459726	0.896216498
8.1027654	-1.60840516	0.227860854
8.101948568	-1.306615716	-0.149838103
8.114048286	-1.01257274	-0.527778741
5.970729049	-1.424665367	-0.671824407
5.737999811	-1.147304346	1.719549641
5.291645504	-0.855552004	1.301067113
6.434676223	-0.801263931	1.256558914
10.56854322	-2.525403737	1.605144958
11.72117216	-2.355972684	1.203233813
11.72201064	-1.486881843	0.534078708
8.106541113	-1.94667122	0.005674815
8.084640367	-1.63618451	-0.373554435
6.668053761	-1.103422113	-0.618780236
5.23649492	-0.673327478	-0.731197242
5.652070848	-1.371022086	1.534476222
11.73525953	-2.38668575	2.559674074
11.5153409	-1.905500608	1.933531805
9.380103137	-1.209419724	1.121407035
11.89745305	-2.887062997	0.903132007
8.092743939	-1.658092489	0.227860854
8.099695563	-1.357295256	-0.149947641
8.112630356	-1.062988797	-0.528100786
5.956082065	-1.459854415	-0.671171617
5.527038615	-1.360604689	1.739799052
5.30079599	-1.093753676	1.369362171
5.820011618	-0.979853108	1.201617114
11.11082501	-1.46131909	1.747879829
9.404780065	-2.308409335	1.071169655
10.76303527	-2.233748345	0.705451573
8.108864928	-1.381217195	0.148605751
8.131331234	-1.088079506	-0.228866515
7.618264511	-1.886551298	-0.569325635
5.721156632	-1.200700347	-0.695309705
5.7168679	-1.197902432	1.716448293
5.266305351	-0.901268086	1.296821471
5.902552756	-0.790236013	1.154017589
10.54197218	-2.621850644	1.604706506
10.83052459	-2.280856481	1.113912439
11.94926029	-2.067955967	0.663136868
8.113655797	-1.106014015	0.071032843
8.092873102	-2.025948932	-0.300077518
7.046446635	-1.497182019	-0.591622881
5.483566344	-0.961024041	-0.716031495
5.486124682	-0.951979133	1.576560495
6.213253837	-0.846936389	1.458086676
5.578336549	-1.405862588	1.067665736
9.411920059	-2.009189003	1.326707864
11.85996136	-2.085729055	1.098871546
12.07985153	-1.683141951	0.551282277
8.088827758	-2.047722286	0.00567958
8.094227721	-1.741787122	-0.374956902
6.64910896	-1.184293084	-0.61832438
5.241569866	-0.739473875	-0.733117825
5.975594884	-0.826418612	1.645997631
4.897449502	-1.250256073	1.133246341
5.904099901	-1.277266579	1.060134884
9.333700877	-1.667459878	1.21494152
12.09978117	-3.09386814	0.921303497
8.094252521	-1.762168855	0.228495032
8.11096477	-1.461731339	-0.150477035
8.091072509	-1.161328924	-0.527585504
5.944456481	-1.534574105	-0.671933186
5.472896827	-1.418728513	1.728106769
5.864631016	-1.285322278	1.518979125
6.55579038	-1.186635765	1.356432787
11.05098127	-1.591640089	1.74140736
11.78728237	-3.047033587	1.346685451
10.71824595	-2.362007919	0.704362834
8.120809434	-1.486020573	0.149147632
8.126268779	-1.189084079	-0.22911751
7.602261102	-1.981910092	-0.569904397
5.704052653	-1.270385584	-0.695073491
5.721404915	-1.27234074	1.722368943
5.31793036	-0.977420063	1.312389014
5.899210575	-0.863605364	1.155349276
10.48890708	-2.745758543	1.601637702
10.86774964	-2.428346221	1.120721674
11.35260474	-2.108500458	0.631413369
8.111340678	-1.207264269	0.071136927
8.074166688	-2.126890319	-0.300329139
7.078101326	-1.59493248	-0.595879189
5.483057595	-1.030441771	-0.717562321
6.033066672	-1.123320041	1.737567421
5.539571476	-0.824469235	1.302267501
5.787804972	-1.534429592	1.1112775
9.416506902	-2.131315599	1.330941225
11.73756827	-2.213029969	1.089965776
12.09482976	-1.836803347	0.552952995
8.065023248	-2.14734505	0.005680942
8.103410843	-1.848092691	-0.376404639
6.665377365	-1.271771238	-0.621241849
5.234058441	-0.80404113	-0.733392242
5.62539987	-0.848464568	1.552286612
5.016504355	-1.346432455	1.164530913
5.71421226	-1.309792102	1.02884769
9.3476076	-1.788583941	1.21951713
11.99817214	-1.853368162	0.992795788
11.14828634	-3.000551452	0.429188293
8.124064667	-1.875158783	-0.074799132
8.088693237	-1.564244638	-0.452962572
6.313434731	-0.987655563	-0.648080814
4.872124877	-1.324377617	-0.740967881
7.389452414	-2.010011333	2.020457449
6.070584071	-1.41020172	1.332092335
11.6568869	-2.261204799	1.967034742
9.377472401	-1.473320443	1.125528099
