x	y	z
-0.727020974, 19.93442182, -0.3642081
-1.14887727, 15.81214918, -0.442283792
-0.248066272, -3.850333959, -0.939272191
-0.24844057, 7.010262425, -0.642211299
-0.471596701, 6.552352944, -0.666242826
0.230727696, 6.088247698, -0.666819762
-0.193676276, 5.511172648, -0.70927048
0.19022525, 4.953252467, -0.727464032
-0.130793121, -5.523274056, -0.973877002
0.161843875, 4.138881231, -0.764467683
0.009954217, 3.952071942, -0.767921084
-2.383169908, -6.88046031, -1.008448605
-0.262147128, 3.661004729, -0.78793308
0.141209917, 3.507709286, -0.783864726
0.011054466, 3.381365276, -0.788054676
-0.226462512, 3.176661408, -0.809526749
0.125071103, 3.016428513, -0.795236106
0.01188931, 2.932272492, -0.80202054
-0.09519288, 2.834192414, -0.805602739
-0.197776686, 2.767466174, -0.819429126
-1.173362236, -3.596121962, -0.961528548
-0.66445784, 19.89458985, -0.363441376
-1.113580791, -3.754970592, -0.953464175
-1.736753982, -4.464109389, -0.97863945
0.025300925, 5.773250113, -0.686687715
-0.362351862, 5.284036841, -0.733529394
0.20505169, 4.943748676, -0.7261572
0.023563481, 4.752223391, -0.742912858
-0.143395941, 4.545481101, -0.755075861
-0.298017244, 4.352548142, -0.769033005
0.174043752, 4.126575274, -0.76228973
0.022155733, 3.965765676, -0.770591491
-0.118040712, 3.822184212, -0.78127017
-0.250379373, 3.653988332, -0.786253957
0.150830024, 3.48093313, -0.777980852
0.021391266, 3.37547229, -0.786692831
-0.100701762, 3.271850037, -0.796879376
0.134367806, 3.016996709, -0.795490856
0.020912819, 2.936080371, -0.803075839
-0.086555934, 2.836394095, -0.806149255
-0.189350723, 2.769016819, -0.819712368
-0.602661268, 19.87154968, -0.362985013
-1.047854926, 15.75905627, -0.44061057
-0.204955147, 6.995728341, -0.640752535
-0.429946071, 6.533282329, -0.664023029
0.268211344, 6.089696589, -0.667146099
0.043020285, 5.774138304, -0.68680585
-0.159569202, 5.502343357, -0.707994822
-0.346656836, 5.293030973, -0.734626893
0.220173901, 4.942107896, -0.726012003
0.038182634, 4.757068147, -0.743685095
-0.12953417, 4.548857795, -0.75556724
-0.283441528, 4.334769998, -0.765734661
0.185369496, 4.096550482, -0.756844788
-0.106150428, 3.816652072, -0.780069137
-0.238784834, 3.648885429, -0.784994572
0.161056265, 3.470704839, -0.775801646
0.031646215, 3.364678317, -0.784196111
-0.090636481, 3.271172495, -0.796642866
-0.208352277, 3.199267877, -0.814946597
0.143347264, 3.010774678, -0.793962532
-0.231125637, -3.16698359, -0.937825708
-1.551341603, -4.092034964, -0.977161396
-0.180667122, 2.766713587, -0.818862643
-0.541284714, 19.85831279, -0.362711189
-1.001526235, 15.79412071, -0.441502971
-1.341009261, -3.712960983, -0.961033251
-0.183622133, 7.001301771, -0.641208392
-0.409775654, 6.532584915, -0.663821208
0.287080149, 6.09281686, -0.667581331
-0.142301859, 5.487934635, -0.706081334
-0.330786633, 5.300001372, -0.735449975
0.235617444, 4.947338782, -0.726883243
0.052667324, 4.747049377, -0.742140561
-0.115402475, 4.542330543, -0.754420686
-0.27057, 4.342499738, -0.766949822
0.046465784, 3.963591965, -0.770210021
-0.094440605, 3.816959709, -0.780069136
-0.228136759, 3.658383466, -0.786883622
0.1369064, -3.198397917, -0.909445712
-0.080648106, 3.27337785, -0.79711589
-0.196675562, 3.169905268, -0.807309517
0.152681419, 3.012252307, -0.794471973
0.039273162, 2.961937807, -0.810199012
-0.068798902, 2.822447113, -0.802050185
-0.172654564, 2.774912375, -0.821128574
0.384416091, -4.619280638, -0.94701233
-0.480067611, 19.84788684, -0.362492112
-0.949935497, 15.74523366, -0.440052849
-0.162164626, 7.002827305, -0.641299586
-0.389317346, 6.526859703, -0.663114952
0.306319462, 6.102828353, -0.668778073
0.078502883, 5.77773707, -0.687278276
-0.125623119, 5.495286346, -0.706974272
-0.314231571, 5.296047398, -0.734764045
0.2524478, 4.979200987, -0.73167492
0.067132875, 4.739950245, -0.741059393
-0.101312054, 4.535759383, -0.753274131
-0.256896757, 4.337410622, -0.76590823
0.210401011, 4.093371704, -0.756481795
0.058422435, 3.94968909, -0.767539614
-0.082623745, 3.812333941, -0.779068257
-0.216449055, 3.651257953, -0.785204499
0.181836858, 3.459905238, -0.773622442
0.052245492, 3.361499457, -0.783515188
-0.070500389, 3.268752931, -0.795933273
-0.187462944, 3.179201213, -0.809526749
0.162908537, 3.030116379, -0.799311632
0.04804513, 2.942514689, -0.804922572
-0.061061502, 2.86592217, -0.814347396
-0.164027209, 2.773514259, -0.820562091
-0.418602944, 19.82227599, -0.361999211
-1.673070864, -3.164875821, -0.942973787
-0.485697079, -4.247049672, -0.954497504
0.324882602, 6.098881841, -0.668451678
0.096492952, 5.793355151, -0.689168042
-0.109077224, 5.511511966, -0.709015372
-0.297592579, 5.290063493, -0.733803754
0.266766263, 4.960619507, -0.729061257
-0.087871138, 4.560706645, -0.75736891
-0.24292605, 4.326379119, -0.763825106
0.222744332, 4.088778891, -0.755755808
-0.070653924, 3.797875505, -0.776065672
-0.205191272, 3.650928747, -0.784994573
0.192559273, 3.461279901, -0.774058271
0.062431327, 3.35450714, -0.781926366
-0.060417752, 3.266039355, -0.795223678
-0.176789048, 3.163311032, -0.805338688
0.172149166, 3.028637007, -0.799056941
-0.052356389, 2.870904951, -0.815713773
-0.155463726, 2.773047089, -0.820278852
-0.356463536, -3.148578557, -0.935843016
-0.357155592, 19.7884783, -0.361360309
-0.85130592, 15.71383475, -0.439021034
-1.742871456, -3.772492134, -0.968499216
-0.118515221, 6.963863222, -0.637652736
0.343983629, 6.104803921, -0.669213306
0.114090018, 5.784096609, -0.688105053
-0.09235004, 5.522729335, -0.710418586
-0.2808881, 5.282049182, -0.732569103
0.281815494, 4.956814222, -0.728625666
0.096155242, 4.736485478, -0.740596083
-0.073942587, 4.564900485, -0.758024086
-1.438508661, -3.341419009, -0.958257013
0.237039141, 4.118511156, -0.761382248
0.082820498, 3.957108121, -0.769065555
-0.059427987, 3.825504576, -0.781670477
-0.193730075, 3.646659146, -0.783945113
0.20437864, 3.481132902, -0.778634597
0.072110332, 3.326063294, -0.775344106
-0.050262484, 3.257465868, -0.793094841
-0.166572189, 3.154160164, -0.802875109
0.180803855, 3.017476343, -0.796254987
-0.146803177, 2.770637684, -0.819429125
-1.248676547, -4.320719209, -0.965501397
-0.802633429, 15.70738758, -0.438770068
-0.096733117, 6.934321787, -0.634917597
-0.33013096, 6.548051643, -0.664931106
0.363006146, 6.108681294, -0.669757258
-0.075216547, 5.509102027, -0.708632651
0.407098984, -3.22382137, -0.923109244
0.29625198, 4.94308735, -0.726738047
-0.059626498, 4.54143201, -0.7540931
-0.216670366, 4.333690109, -0.764866699
0.249911505, 4.121691176, -0.762108235
0.095101656, 3.962723487, -0.770210022
-0.047227138, 3.788440865, -0.77406397
-0.183616584, 3.668719486, -0.788562744
0.083494954, 3.373533059, -0.786465856
-0.040184416, 3.250803724, -0.791439141
-0.157857423, 3.174015952, -0.807802266
0.073967987, 2.896627669, -0.792522955
-0.034704948, 2.868286562, -0.81489397
-0.138254488, 2.77011719, -0.819145884
-0.749836904, 15.6139238, -0.436092926
-0.31102828, 6.569903242, -0.667050051
0.381807614, 6.10853127, -0.669866038
0.148987906, 5.760456299, -0.685388513
-0.058262018, 5.504348152, -0.707994822
-0.24698378, 5.252010982, -0.728179162
-1.562607657, -5.405934399, -0.99193107
-0.045415405, 4.513972847, -0.749506939
0.107152423, 3.95848783, -0.769447024
-0.035576519, 3.785628796, -0.773463454
-0.172130854, 3.664382308, -0.787513285
0.226619117, 3.49344826, -0.78168552
0.093383995, 3.356711054, -0.782607289
-0.030210901, 3.250911893, -0.791439142
0.199889179, 3.024994327, -0.798547499
0.083626644, 2.923384046, -0.799909939
-0.025696515, 2.845293804, -0.808335432
-0.702334473, 15.62513767, -0.43634392
-0.292586534, 6.609589477, -0.670985149
0.399961027, 6.0984034, -0.66888691
0.166832353, 5.76592717, -0.686097209
-0.041329914, 5.498549973, -0.707229437
-0.231174147, 5.25967116, -0.729139453
0.139977778, 4.74330054, -0.741831688
-0.031669992, 4.528888257, -0.751963842
0.27375516, 4.098493378, -0.758115259
0.119473825, 3.964027766, -0.770591492
-0.023962208, 3.785719903, -0.773463452
-0.160844998, 3.663916281, -0.787303416
0.237071125, 3.488841734, -0.780813862
0.104734252, 3.39047903, -0.790551396
-0.020164525, 3.239329864, -0.78860071
-0.138463464, 3.176861387, -0.808294959
0.209035343, 3.022437509, -0.798038059
0.092656145, 2.925042031, -0.800437619
-0.016967154, 2.845359388, -0.808335434
-0.121380545, 2.773787833, -0.819995609
-2.011135575, -3.599798843, -0.961009116
0.258616714, -4.902367298, -0.953893059
-0.271529218, 6.591568851, -0.669068026
0.418055883, 6.088222094, -0.667907725
-0.56847066, -7.199658941, -1.000217443
-0.214915246, 5.25738639, -0.728727941
0.344806926, 4.984568145, -0.733272146
0.154368488, 4.737911607, -0.741059393
0.286259327, 4.096653123, -0.757933763
0.131374065, 3.955793738, -0.769065554
-0.012354061, 3.787735239, -0.773863817
-0.149404082, 3.659507951, -0.786253957
0.247082107, 3.478362664, -0.778634597
0.1143753, 3.367754861, -0.785330982
-0.010253911, 3.248121121, -0.790729548
-0.128441715, 3.170492609, -0.806570478
0.21823739, 3.020817368, -0.797783309
0.100122252, 2.881364415, -0.788565567
-0.1129091, 2.775105313, -0.820278849
-0.605284463, 15.59918785, -0.43550731
0.195492492, -4.453157595, -0.956895797
0.202103857, 5.761817936, -0.685742861
-0.007590666, 5.498700407, -0.707229439
-0.198485426, 5.250102425, -0.727630442
0.360311649, 4.98644753, -0.733707738
-0.003885733, 4.534916206, -0.752946545
-0.163324586, 4.332086249, -0.764172305
0.298182327, 4.086928795, -0.756300298
-1.728351408, -4.746648961, -0.981550449
-7.33584E-4, 3.788735102, -0.77406397
-0.138360606, 3.664834439, -0.787303417
0.257824536, 3.478561591, -0.778852512
0.125211489, 3.381013481, -0.788508626
-2.89546E-4, 3.256881802, -0.792858328
-0.118931735, 3.176682705, -0.808048613
0.227939932, 3.025919371, -0.799311632
4.8797E-4, 2.822323445, -0.801776955
-0.104394662, 2.77543876, -0.820278851
-0.556888615, 15.58598617, -0.435089004
-0.230033542, 6.563282322, -0.666041063
0.455553015, 6.087525108, -0.668125284
0.219552783, 5.75521711, -0.685034221
0.009280819, 5.499689438, -0.707356992
-0.182308636, 5.248706413, -0.72735608
0.374864824, 4.975452275, -0.732255708
0.234988938, -4.040704284, -0.943305106
0.009981406, 4.51419031, -0.749506939
-0.14962418, 4.320755955, -0.762089122
0.310421184, 4.082072453, -0.755574313
-0.126133628, 3.636904583, -0.781216532
0.26842029, 3.476781111, -0.778634597
0.135310502, 3.373801665, -0.786919805
0.009693745, 3.253952522, -0.792148734
-0.109418268, 3.183812822, -0.809773094
0.236163904, 3.011709161, -0.795745547
0.118824778, 2.905753855, -0.795424988
0.009234024, 2.849242849, -0.809428524
-0.096011679, 2.779579914, -0.821411817
-0.728110335, -6.281141436, -0.988491145
-1.255700015, -3.245738918, -0.951871742
-0.210023789, 6.567934746, -0.666444646
0.236758635, 5.743602788, -0.683735019
0.387574652, 4.941728539, -0.727464031
0.197597174, 4.7274056, -0.739669351
0.023914024, 4.529922391, -0.752127636
-0.136212264, 4.316273001, -0.761221159
0.324494836, 4.100707448, -0.759204237
0.167277324, 3.942648009, -0.766776676
0.02259518, 3.802384774, -0.776866401
-0.115932779, 3.667568666, -0.787723211
0.278851314, 3.473022891, -0.777980853
0.145492494, 3.36947871, -0.786011908
0.019635558, 3.247106204, -0.790492978
-0.099922803, 3.192851895, -0.811990327
0.245166926, 3.008078946, -0.794981414
0.128374467, 2.919830071, -0.799382318
0.017762931, 2.815533769, -0.799864061
-0.087393097, 2.776985666, -0.820562093
0.771455447, -7.092073272, -0.988008027
-0.459381842, 15.52616267, -0.433332128
-0.189958903, 6.571531426, -0.666747319
0.493137589, 6.0875876, -0.668451678
0.043111457, 5.510438827, -0.708760205
0.402171136, 4.933613305, -0.726447594
0.211391106, 4.71098537, -0.737198143
0.037885624, 4.538705963, -0.75360172
-0.122885358, 4.313717381, -0.760700335
0.334817797, 4.072249958, -0.754122342
0.179550891, 3.946038613, -0.767539615
0.034101723, 3.784662439, -0.7732633
-0.104652399, 3.666929768, -0.787513285
0.289748348, 3.475068677, -0.778634597
0.154479265, 3.339830639, -0.779202673
-0.089962733, 3.187330681, -0.810512191
0.138464875, 2.943510192, -0.805977871
-0.07887301, 2.777240681, -0.820562092
-0.411507584, 15.51850511, -0.433081162
-0.169899615, 6.576061726, -0.667150961
0.51047885, 6.070196838, -0.666710924
0.271385451, 5.729147382, -0.682199545
-0.123286782, -3.718636256, -0.945761747
-0.134043647, 5.252142805, -0.727630441
0.41672148, 4.925455117, -0.725431215
0.22645833, 4.723143861, -0.739205986
-1.683217788, -4.488755343, -0.979440177
-0.109775587, 4.318996633, -0.761568356
0.34948301, 4.096679384, -0.758841244
0.045641743, 3.778661905, -0.772062267
0.14116732, -4.225528124, -0.944037247
0.165876585, 3.362686096, -0.784650059
0.039464361, 3.239152366, -0.788600711
-0.079818136, 3.173058489, -0.806816822
0.14691543, 2.931511143, -0.802812028
0.035194009, 2.827876178, -0.803416561
-0.070376467, 2.778428313, -0.820845333
-0.364411056, 15.54168031, -0.433694673
-0.149157637, 6.551686132, -0.664628433
0.076922067, 5.510070637, -0.708760206
-0.118063073, 5.258470947, -0.72845358
0.242457986, 4.752028332, -0.743839532
0.06530528, 4.508796226, -0.748687973
-0.096678599, 4.326205127, -0.762783517
0.361357057, 4.08775162, -0.757389276
-0.708836679, -6.283345691, -0.988491145
-0.081734565, 3.64893081, -0.783525375
0.311326697, 3.476141697, -0.779288399
0.175173043, 3.342710075, -0.78011057
0.049712923, 3.259417642, -0.793567922
-0.069783365, 3.15972322, -0.803367858
0.157548001, 2.961869466, -0.811254314
0.044242684, 2.85180028, -0.810248325
-0.061723981, 2.772878396, -0.819145886
-0.316341186, 15.52373639, -0.433164818
-0.128606009, 6.529234549, -0.662307726
0.547000233, 6.059030101, -0.665840576
0.093623712, 5.497908348, -0.707229438
-0.101872171, 5.255837379, -0.728042011
0.448277522, 4.937585776, -0.727609229
0.255541467, 4.723638425, -0.739514916
0.079172388, 4.510547291, -0.74901556
-0.083519423, 4.332389335, -0.763825108
0.373358808, 4.080747846, -0.756300298
0.215271567, 3.933436881, -0.765441471
-1.691155663, -5.080489159, -0.988254215
-0.07070948, 3.657962256, -0.785414367
0.320909387, 3.463508592, -0.776673307
0.186506518, 3.361605047, -0.78465006
-0.060089145, 3.159922434, -0.803367858
0.052652102, 2.833377592, -0.805056166
-0.053179819, 2.771136902, -0.818579402
-0.157260018, -5.876420279, -0.976029683
-0.108557456, 6.528603486, -0.662206816
0.565586523, 6.05732337, -0.665840576
0.325899226, 5.758132047, -0.685979074
0.110291316, 5.487679126, -0.70595378
-0.085698536, 5.253153711, -0.72763044
0.463053806, 4.93224701, -0.727028441
0.092928828, 4.506337853, -0.748360443
-0.070131682, 4.326716946, -0.762783517
0.386154412, 4.082520212, -0.756844787
0.227508129, 3.935698148, -0.766013678
0.080730438, 3.792774766, -0.77506485
-0.059407194, 3.653274094, -0.784364909
0.331812835, 3.465422301, -0.777327108
0.195794094, 3.34351671, -0.780564518
0.069462056, 3.247394362, -0.790729547
-0.050378899, 3.15912285, -0.803121454
0.173718685, 2.927146231, -0.80202054
-0.044492326, 2.75977991, -0.815180447
-2.363334162, -4.056822414, -0.959222818
-0.08843305, 6.521942313, -0.66150056
0.584835629, 6.062485922, -0.666602145
0.34238031, 5.737280731, -0.683616883
-0.06930619, 5.232592432, -0.724749569
0.476655502, 4.915046402, -0.724705171
0.283985556, 4.713105501, -0.738124817
0.107407853, 4.533645883, -0.752946546
-0.056779533, 4.321003509, -0.761741927
0.398773181, 4.082295059, -0.757026283
0.238567446, 3.918324645, -0.762771125
0.092485396, 3.797406796, -0.776065674
-0.048263314, 3.658327425, -0.785414368
0.343019056, 3.470215332, -0.778634597
0.207548847, 3.367201872, -0.786238882
0.079495874, 3.250080143, -0.791439142
0.30270874, 3.025187488, -0.800839956
0.070345443, 2.845502461, -0.80860872
0.249314669, -3.859016209, -0.941400972
0.603530844, 6.061652689, -0.666710925
0.360167026, 5.739176424, -0.683971232
0.14377891, 5.479958341, -0.705060783
-0.053312978, 5.238723512, -0.725572651
0.491042715, 4.906669626, -0.723688792
0.298006679, 4.705310076, -0.737043649
-0.04354245, 4.32312685, -0.762089124
0.410309544, 4.071268066, -0.755211321
0.104242681, 3.80102264, -0.7768664
-0.037108787, 3.665301884, -0.786883621
0.353070036, 3.463321025, -0.777327108
0.216746123, 3.349055483, -0.78215334
0.078246562, 2.815464756, -0.800137292
-0.027538647, 2.758083008, -0.814613965
0.377707634, 5.737053302, -0.683853096
0.160706734, 5.483457168, -0.705571058
-0.037134933, 5.224004378, -0.723514859
0.504773788, 4.892345697, -0.721801114
0.13560616, 4.545720324, -0.755075861
-0.030306669, 4.327178958, -0.762783516
0.422798082, 4.069989959, -0.75521132
0.26378737, 3.934416923, -0.76620447
0.115993158, 3.803622772, -0.777466917
-0.025767041, 3.651710783, -0.783945114
0.363489782, 3.460280456, -0.776891222
0.22748102, 3.35517647, -0.783742161
0.099852549, 3.263127414, -0.794750596
-0.021274838, 3.155576216, -0.80213607
0.31840411, 2.996348157, -0.793707782
0.200190028, 2.918687272, -0.800173808
0.086616853, 2.806558018, -0.797677882
-1.150684792, -3.601407551, -0.961035856
0.39496551, 5.730914226, -0.683262533
-0.021151763, 5.234989595, -0.725023929
-0.017015424, 4.323312667, -0.762089124
0.436537955, 4.080407663, -0.757389276
0.276749487, 3.946319172, -0.768684083
0.128220737, 3.819895685, -0.780869807
-0.014583125, 3.656661206, -0.784994573
0.375468243, 3.471762856, -0.779724229
0.239701581, 3.381663829, -0.790097448
0.109994, 3.266690159, -0.795696703
-0.011661218, 3.174040843, -0.806816823
0.209005585, 2.916135061, -0.799646129
0.095226847, 2.806279097, -0.797677883
-0.010537342, 2.738060232, -0.808665781
-2.485750033, -6.356118156, -1.00160612
-0.375506702, -4.059418055, -0.950114342
0.412831092, 5.733637614, -0.683735019
0.194068461, 5.474438248, -0.704550508
-0.005100574, 5.244935276, -0.726395789
0.53564379, 4.897024817, -0.722962749
0.343088613, 4.727003279, -0.740904957
-0.131902933, -4.249262036, -0.949267376
0.448085925, 4.070251703, -0.75575581
-0.003364578, 3.656688712, -0.784994573
0.386225613, 3.471564593, -0.779942144
0.247273479, 3.343033771, -0.781245442
-0.001909836, 3.151770639, -0.801150627
0.338188432, 3.006830671, -0.797019178
0.218310712, 2.920289492, -0.800965239
0.103622505, 2.800206055, -0.796038277
-0.002146773, 2.750547337, -0.812347977
0.67665434, 6.042922822, -0.665514181
0.210862891, 5.47381711, -0.704550508
0.010978232, 5.238983173, -0.72557265
0.549890947, 4.888476214, -0.72194637
0.35751468, 4.724943096, -0.74075052
0.177168678, 4.537379157, -0.753929305
0.009494908, 4.315456942, -0.760700335
0.150529334, 3.79064637, -0.775064851
0.007877101, 3.66743666, -0.787303416
0.396098185, 3.463575941, -0.778416683
0.129340163, 3.248478252, -0.791439141
0.007745352, 3.145946487, -0.79967249
0.346967538, 3.001936288, -0.796000294
0.227867876, 2.92729939, -0.80307584
0.111981803, 2.794108143, -0.794398617
0.006265471, 2.739032291, -0.808949021
0.695758882, 6.045756293, -0.666058134
0.448313831, 5.734956313, -0.684207445
0.227902649, 5.479090125, -0.705315949
0.027066498, 5.241896396, -0.72598422
0.564545179, 4.883817131, -0.721510719
0.371233256, 4.713974602, -0.739205986
0.022765628, 4.321316579, -0.761741927
0.47282488, 4.065472123, -0.755392818
0.312514942, 3.936754711, -0.767348879
0.161278698, 3.769610446, -0.770861233
0.019098004, 3.661529111, -0.786044032
0.268714875, 3.353103101, -0.783969136
0.017327269, 3.133308985, -0.796469875
0.355377906, 2.994135745, -0.794217223
0.236069542, 2.916972131, -0.800437617
0.120968173, 2.803361693, -0.797131309
0.014663539, 2.738041203, -0.80866578
0.306618165, 6.910272241, -0.633276503
0.71488707, 6.04852917, -0.666602145
0.465665042, 5.730584743, -0.683853096
0.245109536, 5.487282783, -0.706464054
0.579992375, 4.885992511, -0.722091567
0.384887896, 4.702966491, -0.737661509
0.204872574, 4.533250285, -0.753437925
0.036097017, 4.330089174, -0.763304283
0.484479117, 4.057167091, -0.754122344
0.322009377, 3.904471604, -0.761245187
0.172932712, 3.771055437, -0.771261597
0.030193642, 3.644832596, -0.782475918
0.416758645, 3.456235406, -0.777327108
0.277789128, 3.337704846, -0.78056452
0.148511621, 3.231123458, -0.787418093
0.026915047, 3.130333572, -0.795730777
0.363392874, 2.983432381, -0.791670078
0.243644694, 2.899893977, -0.795952607
0.128679837, 2.783759368, -0.791665922
0.023087897, 2.740860444, -0.809515563
0.327486763, 6.9023358, -0.632638315
0.483244026, 5.729128999, -0.683853096
0.261517412, 5.47758877, -0.70531595
0.059005813, 5.221821903, -0.723240499
0.595338586, 4.887136449, -0.722527158
-0.050365575, -4.436628453, -0.952488092
0.219350157, 4.544424698, -0.755403448
0.049527375, 4.342759873, -0.765561092
0.498000454, 4.064446476, -0.755755809
0.335074511, 3.916180014, -0.763724799
0.185028057, 3.781271561, -0.773463453
0.04134239, 3.641789785, -0.781846196
0.428198915, 3.461720793, -0.778852513
0.288614051, 3.343628782, -0.78215334
0.159566017, 3.25394345, -0.79309484
0.036529954, 3.131205457, -0.795977125
0.373623001, 2.990939353, -0.793962532
0.25354478, 2.910664232, -0.799118509
0.139019592, 2.819860609, -0.802050184
0.031199074, 2.714884128, -0.801867929
-1.874523373, -3.48199555, -0.96268895
0.348761782, 6.903288053, -0.632820647
0.75260035, 6.048961211, -0.667146098
0.500818479, 5.727619339, -0.683853095
0.074926242, 5.214683302, -0.722280209
0.609348093, 4.877432774, -0.721365523
0.232684218, 4.531907894, -0.753437926
0.196984174, 3.787535133, -0.774864639
0.052345874, 3.629914232, -0.77932754
0.439062886, 3.462327122, -0.779288399
0.301212483, 3.368918445, -0.788281651
0.169244821, 3.24761671, -0.791675653
0.381446432, 2.979228044, -0.791160636
0.148022348, 2.82614515, -0.803963132
0.343402654, -4.64314193, -0.951215947
-0.80513478, -6.27173364, -0.988491146
0.369885833, 6.901190907, -0.632729452
0.770651751, 6.042679792, -0.666710925
0.518388226, 5.726056239, -0.683853097
0.294748721, 5.468948081, -0.704422953
0.625439944, 4.884373057, -0.722672355
0.426901496, 4.685449613, -0.735499171
-1.359189035, -4.109469388, -0.966483223
0.359007753, 3.913072619, -0.763534063
0.20801047, 3.776152105, -0.772662784
0.063738503, 3.644400093, -0.782475916
0.311995299, 3.372827383, -0.789416524
0.179850087, 3.25872403, -0.794514027
0.391590774, 2.985714193, -0.793198343
0.272116321, 2.916736876, -0.801229051
0.155946495, 2.81223127, -0.800137291
0.049675733, -3.275019195, -0.930487582
0.391958211, 6.915931807, -0.634188216
-1.937027267, -3.371627078, -0.946604696
0.788671677, 6.036343976, -0.66627575
0.535860468, 5.723450263, -0.683735019
0.311412991, 5.466037935, -0.704167846
0.641065444, 4.887335995, -0.72339834
-0.088592185, -3.700235552, -0.940834649
0.259977454, 4.521531188, -0.751963843
0.089231155, 4.329320044, -0.763304282
0.535130363, 4.057740843, -0.755392816
0.371289245, 3.914884601, -0.764106326
0.075220516, 3.65885038, -0.785624295
0.188546933, 3.235847343, -0.789073791
0.065428154, 3.134612291, -0.796962565
0.402035909, 2.99408282, -0.795745546
0.280878355, 2.913968071, -0.80070143
0.16266253, 2.779089573, -0.790846117
-2.008337393, -3.838688001, -0.967354883
0.413352337, 6.917678869, -0.634461741
0.553704057, 5.724744302, -0.684089309
0.328062199, 5.463076734, -0.703912679
0.122894384, 5.212782819, -0.722143059
0.65592485, 4.884365604, -0.723253142
0.456025578, 4.686675495, -0.736116974
0.272953369, 4.505942002, -0.749506941
0.546261182, 4.046334674, -0.753577856
0.23069746, 3.766981242, -0.771061387
-1.233985334, -4.108039588, -0.957766343
0.468276962, 3.438798727, -0.774929931
0.198116515, 3.229434829, -0.787654603
0.075207083, 3.14117927, -0.798687049
0.405954428, 2.954514692, -0.785556785
0.289816949, 2.913092473, -0.800701428
0.171779416, 2.788178645, -0.793578812
0.06533289, 2.748812645, -0.812064733
0.823268219, 6.013663413, -0.664317381
0.570574318, 5.716101974, -0.683262534
0.34475864, 5.461054393, -0.703785124
0.138939172, 5.214361626, -0.722417419
0.67090681, 4.882330244, -0.723253142
0.470303239, 4.684271663, -0.735962539
0.286212074, 4.496222643, -0.748032856
0.115635674, 4.322784515, -0.762262751
0.559076258, 4.047562252, -0.754122345
-1.997721542, -4.919155751, -0.979905274
0.097304068, 3.644636616, -0.782685786
0.342433004, 3.363999526, -0.788054676
0.20658655, 3.206510812, -0.782214368
0.084608202, 3.13221417, -0.796469873
0.180084228, 2.7837989, -0.792485724
0.073997388, 2.757227587, -0.814613963
0.455266683, 6.907062822, -0.633732359
0.841162583, 6.007171552, -0.663882207
0.361118134, 5.454033335, -0.703019741
0.155436129, 5.230742379, -0.724749569
0.684230043, 4.868491687, -0.72151072
0.482841296, 4.665116976, -0.733182399
0.299545134, 4.488433479, -0.746886303
0.572316621, 4.051669871, -0.755211319
0.409338627, 3.930828777, -0.767921085
0.254465777, 3.775270051, -0.773063146
0.108106998, 3.631616163, -0.779957204
0.490331528, 3.442624108, -0.776455391
0.352345589, 3.359058834, -0.787146779
0.218386337, 3.23494448, -0.789310304
0.094800148, 3.151314689, -0.801396973
0.43260087, 3.011313983, -0.801349397
0.189859767, 2.801468269, -0.797677884
0.858602297, 5.997674623, -0.663120639
0.605008763, 5.706568676, -0.682553894
0.377780602, 5.451910315, -0.702892187
0.171418172, 5.228260852, -0.724475208
0.699022429, 4.865390502, -0.721365524
0.497465572, 4.666561134, -0.733645708
0.313176608, 4.485525179, -0.746558716
0.141607238, 4.305260587, -0.759311605
0.419721604, 3.91393757, -0.764869266
0.498922924, 3.427582635, -0.773404469
0.361812831, 3.350215883, -0.785330983
0.104532025, 3.152946454, -0.801889724
0.440573403, 3.001361736, -0.799056941
0.315468526, 2.899753793, -0.797799398
0.199337494, 2.813346375, -0.80123038
0.090724357, 2.75097069, -0.812914461
-0.37869245, -3.563692822, -0.943992669
0.496994718, 6.895200212, -0.632911783
0.877286635, 5.996979113, -0.663338196
0.622190293, 5.701724249, -0.682199545
0.18731546, 5.223750827, -0.72392643
0.714808203, 4.86909612, -0.722236762
0.327510351, 4.492413935, -0.747869062
0.155204262, 4.31563213, -0.76122116
0.600036704, 4.067539606, -0.758841246
0.432481076, 3.919461472, -0.766204468
0.507426603, 3.412520829, -0.770353603
0.3709065, 3.338442703, -0.782834264
0.113959039, 3.145831055, -0.800165184
0.450783036, 3.006690133, -0.800839954
0.327474014, 2.926571401, -0.80545025
0.207613122, 2.807924992, -0.799864061
0.098956477, 2.744928653, -0.811215009
0.895680962, 5.994259388, -0.663338196
0.63901548, 5.693867604, -0.681490904
0.410852631, 5.444544229, -0.702254298
0.203032552, 5.215232953, -0.722828929
0.577466288, -3.646158803, -0.93837107
0.529080098, 4.689928523, -0.737815944
0.167982741, 4.303326687, -0.759137978
0.614124407, 4.07637585, -0.760837702
0.444171811, 3.91519013, -0.765632206
0.287030039, 3.744438138, -0.767258132
0.141184145, 3.621674466, -0.778068155
-0.053961242, -4.274391666, -0.954497507
0.380815415, 3.334386354, -0.782153342
0.248373797, 3.235703793, -0.790019954
0.123990352, 3.155150978, -0.802628763
0.459566384, 3.00242544, -0.800075823
0.335018397, 2.913095477, -0.802020538
0.214601537, 2.78617472, -0.793852098
0.107264859, 2.741737308, -0.810365286
0.54053645, 6.907905571, -0.634370546
0.271806289, 6.519863229, -0.661803232
0.914066855, 5.991483353, -0.663338196
0.427398995, 5.44128099, -0.701999191
0.218906997, 5.211616931, -0.722417419
0.744371514, 4.862662719, -0.721946369
0.542783519, 4.68239466, -0.736889212
0.355457943, 4.495236942, -0.748687971
0.620199964, 4.03267841, -0.75303331
0.455613109, 3.90893414, -0.764678533
0.300307719, 3.766003201, -0.771862113
0.15192488, 3.612432505, -0.776179163
0.529551628, 3.417058784, -0.77209698
0.38809297, 3.308053301, -0.776252004
0.257912966, 3.230083886, -0.78883728
0.13424403, 3.168312, -0.806077784
0.465193664, 2.97807104, -0.793962532
0.34327524, 2.906306639, -0.800437619
-1.528178031, -3.243740436, -0.944502109
0.114867246, 2.722231379, -0.804700342
0.561161966, 6.899266924, -0.633732359
0.291451759, 6.511047685, -0.660996008
0.933820587, 5.997491092, -0.664317381
0.672538773, 5.678006382, -0.680073625
-2.063954644, -5.620028783, -0.994046736
0.557379921, 4.682669913, -0.737198144
0.369489808, 4.497074913, -0.749179352
0.63821025, 4.06670203, -0.759748725
0.46678694, 3.90069493, -0.763343329
0.31202199, 3.767017008, -0.77226242
0.163447747, 3.621716809, -0.778278082
0.542318851, 3.42987792, -0.775365818
0.397774332, 3.302979491, -0.775344107
0.267741208, 3.228309131, -0.788600711
0.141719698, 3.118508042, -0.793513602
0.471284581, 2.957530539, -0.788868123
0.353234761, 2.913857885, -0.80281203
0.233288273, 2.80397804, -0.799317489
0.122914796, 2.715159617, -0.802717651
0.311711219, 6.516085188, -0.661601411
0.952840027, 5.998524899, -0.664752555
0.690195151, 5.677887737, -0.680309838
0.460694292, 5.437567748, -0.701871637
0.251118955, 5.215122208, -0.723103347
0.775128534, 4.863866144, -0.722817551
0.571863298, 4.681918491, -0.737352579
0.382446937, 4.486091168, -0.747541477
0.207819736, 4.306516884, -0.760006
0.478632293, 3.898270218, -0.763152594
0.32382918, 3.768970372, -0.772862935
0.174605329, 3.622174805, -0.77848795
0.551440629, 3.419526276, -0.773404469
0.407667037, 3.299810341, -0.774890157
0.278643579, 3.239088959, -0.79143914
0.150722856, 3.106442105, -0.790557331
0.477564092, 2.938889915, -0.784283156
0.36169661, 2.908931655, -0.80175673
0.24081459, 2.790790341, -0.795764992
0.130966341, 2.709022376, -0.801018148
0.601400839, 6.871884409, -0.631544213
0.331549045, 6.512117593, -0.661298739
0.971079818, 5.994591927, -0.664643775
0.478241968, 5.446008849, -0.703147295
0.266813492, 5.208391863, -0.722280209
0.790046987, 4.861465137, -0.722817551
0.58634732, 4.681122201, -0.737507015
0.394819282, 4.469173619, -0.744920837
0.221687284, 4.318644412, -0.762262749
0.657923164, 4.030681291, -0.75375935
0.489608811, 3.88899187, -0.761626656
0.335130088, 3.765031644, -0.77226242
0.185216462, 3.61185766, -0.776389032
0.563353974, 3.426485658, -0.775365817
0.421704789, 3.329462065, -0.782153341
0.160202649, 3.104997175, -0.790310927
0.487526379, 2.943135006, -0.785811479
0.371473087, 2.914506016, -0.803603461
0.249974935, 2.796745193, -0.797677884
0.139720138, 2.717227844, -0.803567378
-0.543112611, -4.437041254, -0.959624439
-1.902009556, -3.664117929, -0.962143989
0.622031359, 6.865048118, -0.631088357
0.351097322, 6.503122199, -0.660491514
0.990114248, 5.995507865, -0.66507895
0.725902109, 5.680440782, -0.681136613
0.495486587, 5.450442575, -0.703912679
0.282952484, 5.21051635, -0.722691779
0.805443158, 4.861947034, -0.723253144
0.600202807, 4.675381539, -0.736889213
0.408259181, 4.464994253, -0.744429457
0.233812079, 4.297293637, -0.758617212
0.670124624, 4.027674036, -0.753577855
0.502542588, 3.89525979, -0.763152593
0.34533156, 3.749351225, -0.769259836
0.1698337, 3.106426555, -0.790803677
0.49655351, 2.941625306, -0.785811477
0.378164899, 2.896136396, -0.798854639
0.259971295, 2.811290665, -0.802050184
0.149256123, 2.738811853, -0.810082046
-1.523626487, -2.79364387, -0.939808454
-0.33966981, -6.699540285, -0.984472286
0.643090087, 6.863107483, -0.631088357
-0.258927696, -3.148473177, -0.933010545
1.009328491, 5.997343101, -0.66562296
0.742552704, 5.672279683, -0.680427916
0.512113172, 5.447909198, -0.703785124
0.298823301, 5.207645934, -0.722417419
0.819861502, 4.856526113, -0.722817552
0.247334022, 4.302454967, -0.759658801
0.684450679, 4.037233763, -0.755755809
0.516033847, 3.905378112, -0.765441473
0.356554246, 3.745348019, -0.768659319
0.208271908, 3.626270983, -0.779747277
0.444692068, 3.346120099, -0.786692831
0.306784269, 3.218976924, -0.787181523
0.180033798, 3.11750181, -0.79375995
0.513278394, 2.984880515, -0.797783311
0.388965675, 2.909303513, -0.802812027
0.156886233, 2.724936505, -0.806116608
0.390336086, 6.489921158, -0.659381615
1.026043508, 5.984420657, -0.664534997
0.759687648, 5.668006198, -0.680191702
0.528249582, 5.440389498, -0.703019741
0.314200939, 5.196817072, -0.721045558
0.627692823, 4.662798105, -0.735499172
0.435456489, 4.460441507, -0.74410187
0.260294437, 4.297743818, -0.758964407
0.696833498, 4.035114733, -0.755755808
0.367468045, 3.738386223, -0.767458286
0.219632407, 3.629518745, -0.780586867
0.59436508, 3.418271064, -0.774712016
0.316468193, 3.216086764, -0.786708442
0.190421146, 3.130478151, -0.797208912
0.517929749, 2.957573518, -0.790905886
0.395535864, 2.890894631, -0.798063208
0.166232543, 2.740716294, -0.81093177
-2.037397196, -4.603116854, -0.978117103
0.376308665, -3.109561881, -0.925079671
0.68449632, 6.852095976, -0.63045017
0.410119476, 6.48670733, -0.659179853
1.044911564, 5.98418251, -0.664861392
-0.494331272, -6.277091629, -0.98432085
0.542861441, 5.418018668, -0.700340812
0.329389298, 5.183965908, -0.719399337
0.641186221, 4.654977814, -0.734572439
0.449237749, 4.460066217, -0.744265664
0.272978101, 4.289062479, -0.75757562
0.711764591, 4.047485768, -0.758478251
0.541332667, 3.911862128, -0.767348882
0.378639023, 3.734316868, -0.766857826
0.230208116, 3.620046108, -0.778697876
0.605359821, 3.419314518, -0.775365818
0.329767597, 3.248933578, -0.794987108
0.199653545, 3.124076003, -0.795730777
0.52581293, 2.949306779, -0.789122873
0.40600739, 2.901130706, -0.801229051
0.283886927, 2.789639022, -0.796584794
0.174640148, 2.74019342, -0.81093177
0.706229225, 6.856898202, -0.631088358
0.430018497, 6.485418466, -0.659179853
1.059611948, 5.960395712, -0.662576627
0.793210061, 5.654387941, -0.679128713
0.557442978, 5.396595754, -0.697789493
0.346806392, 5.205662992, -0.722554569
0.86139901, 4.831241746, -0.720203888
0.656980487, 4.663750454, -0.73627141
0.462205784, 4.451798274, -0.743119109
0.28816805, 4.318666353, -0.762957085
0.725045178, 4.050123538, -0.759385734
0.550855768, 3.892687696, -0.763915535
0.241963622, 3.629078514, -0.780796738
0.61480872, 3.411678268, -0.774058272
0.473823944, 3.330315249, -0.783969137
0.33629686, 3.21505078, -0.786945012
0.209431473, 3.126349843, -0.796469874
0.414769405, 2.898916482, -0.800965239
0.291641487, 2.781101446, -0.794398616
-1.155226434, -3.281820158, -0.951607932
-2.13027512, -3.994300404, -0.971798092
-1.618246771, -4.078643086, -0.979776488
0.728523332, 6.866582256, -0.632182459
0.449362514, 6.476128722, -0.658372628
1.074884302, 5.94048746, -0.660727094
0.809989856, 5.647995744, -0.678656286
0.5755709, 5.409654327, -0.699702982
0.362224471, 5.196669372, -0.721457127
0.874627111, 4.819814844, -0.718897115
0.670722286, 4.657801651, -0.735653609
0.477329922, 4.46409198, -0.74541216
0.300867541, 4.309902913, -0.761568357
0.734470956, 4.031432798, -0.756300297
0.561952625, 3.885149941, -0.762771123
0.40280301, 3.743613066, -0.769259837
0.252824197, 3.624417536, -0.779957204
0.627913234, 3.424175202, -0.777327107
0.48796287, 3.355831197, -0.790324421
0.346158909, 3.214003876, -0.786945011
0.218615517, 3.119891775, -0.794991738
0.546181966, 2.958387065, -0.792434209
0.300791979, 2.785931921, -0.796038279
0.190514193, 2.725676307, -0.806966333
0.468509754, 6.464796655, -0.65736364
1.094004388, 5.942050181, -0.661271047
0.826018056, 5.636641536, -0.677593297
0.377950206, 5.192569972, -0.721045558
0.890667489, 4.823919426, -0.719913494
0.684002343, 4.648879242, -0.734572439
0.49005229, 4.453781652, -0.743938078
0.313014773, 4.294226244, -0.758964408
0.413962945, 3.739438166, -0.768659319
0.637162652, 3.41551694, -0.775801648
0.495966563, 3.338905229, -0.786692831
0.357515839, 3.226446629, -0.790256466
0.22938827, 3.135638517, -0.799179799
0.556861929, 2.965251062, -0.794726664
0.431409219, 2.888685154, -0.798854641
0.307744787, 2.770655045, -0.791939207
0.199852823, 2.738469826, -0.810931767
0.769641934, 6.853076635, -0.631361883
0.487141962, 6.447455934, -0.655749248
1.11296117, 5.942573824, -0.661706279
0.84507104, 5.645865669, -0.679010635
0.609197017, 5.409963024, -0.700213256
0.392380238, 5.171631986, -0.718301838
0.907106462, 4.82991604, -0.721220326
0.696499879, 4.635034869, -0.732719034
0.506153798, 4.473822441, -0.747541477
0.325740152, 4.287353852, -0.757922818
0.752634653, 3.992061279, -0.749766378
0.428867932, 3.76832829, -0.77486464
0.273726075, 3.605249444, -0.776179163
0.645455249, 3.402039687, -0.773186554
0.382407595, -7.191104415, -0.997336629
0.365653227, 3.209888556, -0.786471929
0.238196762, 3.124289876, -0.796469874
0.564868221, 2.957829644, -0.793198342
0.439251767, 2.880673056, -0.797007908
0.316898346, 2.775432191, -0.793578812
0.207162298, 2.723499659, -0.80668309
0.785297018, 6.804187344, -0.627076845
0.50676419, 6.443947275, -0.655547427
1.132117412, 5.944013897, -0.662250231
0.863738408, 5.652080916, -0.680073624
0.623853544, 5.39131944, -0.698044602
0.40847865, 5.17336614, -0.718713407
0.923405082, 4.834885013, -0.722381961
0.71056689, 4.631899255, -0.732564596
0.518510025, 4.460489826, -0.745575955
0.338659173, 4.28338917, -0.757402052
0.766915272, 4.000356941, -0.751762834
0.596341667, 3.871081716, -0.761054451
0.43997188, 3.763102328, -0.77406397
0.659771629, 3.420167601, -0.777762937
0.517487388, 3.34253606, -0.788281651
0.246861115, 3.11195054, -0.793513601
0.215819596, 2.72667545, -0.807816056
0.807105908, 6.809657455, -0.627806227
0.526450485, 6.441370802, -0.655446517
1.151671003, 5.947344577, -0.663011801
0.88413506, 5.669027339, -0.682435816
0.642731552, 5.409078042, -0.700595977
0.939365471, 4.837856933, -0.723253143
0.531373768, 4.452020905, -0.744429457
0.351153768, 4.274477734, -0.756013263
0.778432169, 3.994124737, -0.751036852
0.452098655, 3.766598616, -0.77506485
0.295602311, 3.600578655, -0.775549499
0.38673255, 3.219160883, -0.789310305
0.256327704, 3.110212657, -0.793267255
0.456616489, 2.876018313, -0.796480286
0.224576928, 2.730779562, -0.809232262
0.595249852, -4.586989722, -0.945010627
-0.363107451, -3.70973566, -0.947486287
-0.336513382, -4.043291042, -0.945574851
1.171639586, 5.952561097, -0.663990985
0.902459356, 5.672172141, -0.683144456
-0.376561422, -3.072818221, -0.914316383
0.439793988, 5.165827508, -0.718027477
0.951521439, 4.821362395, -0.721220325
0.740376507, 4.636233204, -0.733954638
0.790491197, 3.990753013, -0.750855355
0.621170807, 3.874134536, -0.762389654
0.463053559, 3.760331843, -0.77406397
0.306564349, 3.598680677, -0.775339573
-1.475232669, -4.514981195, -0.970432368
0.39458649, 3.201565485, -0.785289253
0.266446454, 3.116171336, -0.794991738
0.592827922, 2.956297968, -0.794217223
0.467750379, 2.888886421, -0.800437617
0.344433908, 2.788627552, -0.798224399
0.232383022, 2.723388718, -0.807249573
0.853435186, 6.841139718, -0.631179552
1.189116375, 5.94503981, -0.663555812
0.919539028, 5.667416183, -0.682908242
0.677016575, 5.41389015, -0.701744083
0.455292256, 5.160507223, -0.717478756
0.755073175, 4.636865399, -0.734418004
0.558926728, 4.450634484, -0.744757045
0.375815122, 4.254584778, -0.752888491
0.805059373, 3.999877691, -0.753033309
0.632103277, 3.866398053, -0.761245187
0.317345574, 3.594801385, -0.774709909
-0.283988596, -4.912762281, -0.956181937
0.543809451, 3.310723023, -0.781926366
0.405381373, 3.208051724, -0.787181524
0.275235717, 3.106650622, -0.792774506
0.59899938, 2.940252111, -0.790396446
0.352745985, 2.785649091, -0.797677883
0.242511025, 2.742724754, -0.813197701
-1.228071063, -3.576783704, -0.961282201
0.874545837, 6.839476718, -0.631270746
0.585983509, 6.439224963, -0.655749248
1.206360143, 5.936492794, -0.663011801
0.693622963, 5.411787409, -0.701744082
0.470671914, 5.154153595, -0.716792825
0.978321558, 4.801860476, -0.719187509
0.767192105, 4.621856328, -0.732410103
0.574845062, 4.466510339, -0.747705269
0.646543883, 3.879933213, -0.764297063
0.484609261, 3.745759884, -0.771661903
0.330330028, 3.615231673, -0.77932754
0.69972662, 3.402254174, -0.775583732
0.553481619, 3.306157434, -0.781245442
0.413599687, 3.194266355, -0.78410658
0.284765481, 3.105791587, -0.792774506
0.612327899, 2.959233427, -0.796000294
0.362280754, 2.792185355, -0.799864062
0.249263855, 2.723821706, -0.807816056
-2.3322837, -5.958067823, -1.000229447
0.895395601, 6.835774249, -0.631179552
1.223562589, 5.927896131, -0.662467848
0.950665353, 5.640125253, -0.680309838
0.709577275, 5.404716937, -0.701106252
0.486854814, 5.15663, -0.717341546
0.995053843, 4.808525258, -0.720639538
0.784334148, 4.637015736, -0.735190242
0.404137764, 4.2757292, -0.757054853
0.8277875, 3.986196869, -0.751399843
0.655650815, 3.861478736, -0.761054451
0.49506931, 3.736485288, -0.770060563
0.339029092, 3.588893001, -0.773870319
0.710560339, 3.402002241, -0.776019563
0.564113411, 3.307324069, -0.781926367
0.29438403, 3.10586804, -0.793020851
0.618818792, 2.945038465, -0.792688958
0.49562257, 2.8920648, -0.802548161
0.370211857, 2.786293013, -0.798497687
0.259064514, 2.73832078, -0.812347977
0.205992493, -3.685852316, -0.938371069
0.205976774, -3.154302326, -0.933577028
0.916098502, 6.831020795, -0.630997221
0.62548284, 6.435507971, -0.655749248
1.24337481, 5.931897926, -0.663338196
0.724966299, 5.393667694, -0.699958148
0.502672884, 5.155112378, -0.717341547
1.011022281, 4.811259409, -0.72151072
0.800737564, 4.64724507, -0.737198143
0.60144868, 4.45703313, -0.746722508
0.41878449, 4.290152039, -0.759832372
0.840418882, 3.985562864, -0.751762834
0.666323554, 3.852678001, -0.759719247
0.507452029, 3.741744866, -0.771461749
0.350987439, 3.597566995, -0.775969237
0.72018436, 3.395987174, -0.775147845
0.305233069, 3.118454247, -0.796469872
-1.781200957, -3.155373641, -0.954436176
0.504161276, 2.888630213, -0.802020539
0.376684373, 2.76989348, -0.794125329
0.266345245, 2.726058956, -0.808949021
0.574645158, -5.443363854, -0.964849997
0.936780669, 6.826204838, -0.63081489
-1.601814782, -3.614503453, -0.962452436
1.259912517, 5.92027705, -0.662467849
0.740294177, 5.382575016, -0.698810044
0.519576908, 5.164386973, -0.718850558
1.030113336, 4.828455014, -0.724559974
0.611881668, 4.431713919, -0.742791524
0.852024877, 3.980081259, -0.751218348
0.678140284, 3.850615625, -0.759719247
0.519602416, 3.745022888, -0.772462631
0.361631279, 3.592581933, -0.775129703
0.731215878, 3.396624141, -0.775801648
0.585922892, 3.312431591, -0.783969137
0.442714135, 3.188399621, -0.783633556
0.313630493, 3.105931809, -0.793513601
0.510996, 2.875673574, -0.79885464
0.3882291, 2.790638286, -0.800410579
0.27441885, 2.722366289, -0.808099296
-0.149576184, -4.038919537, -0.941943261
0.636936754, -4.358354149, -0.945561677
-2.701760023, -7.368656625, -1.009434821
0.957165122, 6.819354179, -0.63045017
0.665367824, 6.435507795, -0.656152832
1.276810294, 5.910553927, -0.661815059
1.001665093, 5.626248765, -0.679719276
0.755284469, 5.36947481, -0.697406773
0.535214177, 5.16079837, -0.718576198
1.043665622, 4.819470288, -0.723688793
0.829411173, 4.643217026, -0.737352579
0.626164709, 4.434699712, -0.74361049
0.445303847, 4.289460854, -0.76017957
0.863187581, 3.972643597, -0.750310866
0.529162813, 3.729830324, -0.769660199
0.371137853, 3.576868214, -0.771981328
0.738508267, 3.3800627, -0.77253281
0.45331343, 3.192798153, -0.785052742
0.323860182, 3.11170292, -0.795238084
0.641954505, 2.921273058, -0.78784924
0.283265246, 2.726281238, -0.809515561
-1.480303589, -4.783538202, -0.972967141
0.975111763, 6.795684959, -0.62853555
0.684792534, 6.430468203, -0.655850159
1.294086138, 5.902724743, -0.661379884
1.022639608, 5.643667829, -0.682199544
0.771048441, 5.362223445, -0.696768943
0.550097948, 5.150267456, -0.717341547
1.058021912, 4.814313067, -0.723398341
0.841355098, 4.628013603, -0.735344678
0.639767202, 4.432757819, -0.74361049
0.458042867, 4.284157277, -0.759485174
0.875794921, 3.971897317, -0.750673858
0.701930635, 3.847348029, -0.759909983
0.539056657, 3.717523517, -0.767458285
0.381901988, 3.573768213, -0.771561532
0.604656898, 3.300152371, -0.781926366
0.461432265, 3.179853807, -0.782214369
0.332269063, 3.100094441, -0.79252816
0.530202423, 2.881021711, -0.80122905
0.402023449, 2.765357325, -0.7938521
0.290505585, 2.714909657, -0.806399848
0.996100468, 6.79364694, -0.628626745
0.703867337, 6.422403046, -0.655244754
1.038688891, 5.633668227, -0.681372827
0.786198269, 5.351000936, -0.695620838
1.070203051, 4.79945596, -0.721655917
0.856088771, 4.628325449, -0.735808045
0.652068484, 4.421990571, -0.742136348
0.887761692, 3.968232241, -0.750492363
0.551177227, 3.720698122, -0.768459165
0.392330009, 3.567720346, -0.770512072
0.757949027, 3.369754553, -0.771225263
0.614957234, 3.299239374, -0.782153342
0.342734627, 3.107730562, -0.794745392
0.65880031, 2.912563247, -0.786575667
0.532649126, 2.845250051, -0.791731467
0.409092441, 2.75459581, -0.791119347
0.299358257, 2.718772222, -0.807816057
1.017380901, 6.79351337, -0.62890027
0.721562145, 6.40241788, -0.653428541
1.331593216, 5.900491068, -0.662032615
1.053405305, 5.616791152, -0.679719275
0.581244058, 5.142857831, -0.716792825
1.089943317, 4.818345505, -0.724995565
0.869553534, 4.621793193, -0.735190242
0.662546902, 4.399484016, -0.738696744
0.483767822, 4.27637333, -0.758617211
0.901237714, 3.971243765, -0.751581339
0.562442975, 3.718020918, -0.768259013
0.403273763, 3.56649992, -0.770512073
0.768500837, 3.368364861, -0.771443178
0.624894887, 3.296380327, -0.781926367
0.482534534, 3.187530178, -0.784816231
0.670760124, 2.92372376, -0.790141753
0.542638508, 2.85023524, -0.793578198
0.421435688, 2.779006434, -0.798497685
0.307158486, 2.713076028, -0.806399847
-0.594356425, -5.559122563, -0.985507955
0.739942089, 6.389302949, -0.652318644
1.351020157, 5.902192245, -0.662685406
1.068027924, 5.599877308, -0.678065724
0.822320902, 5.367644984, -0.698427323
1.0987468, 4.788941867, -0.72107513
0.681287627, 4.431557143, -0.744429459
0.495861959, 4.266064725, -0.757054853
0.913417107, 3.968460209, -0.75158134
0.737310952, 3.840724511, -0.759909982
0.574594653, 3.721119341, -0.769259836
0.414552233, 3.568159532, -0.771141737
0.779271226, 3.367892994, -0.771879065
0.634452102, 3.291578567, -0.781245442
0.492904942, 3.189875632, -0.785762336
0.361909004, 3.106531684, -0.794991738
0.681041599, 2.927303416, -0.791670077
0.548447477, 2.833405274, -0.789357057
0.436581126, 2.820478202, -0.810794898
0.314815787, 2.706405329, -0.804700344
-0.461113417, -5.216217749, -0.966474442
1.058431896, 6.783207257, -0.62853555
0.759070769, 6.383051099, -0.65191506
1.370020639, 5.901893029, -0.663120638
1.084257983, 5.591700021, -0.67747522
0.839703965, 5.370976361, -0.699192706
0.614665608, 5.154932086, -0.718987768
1.109846445, 4.770129668, -0.71875186
0.895820975, 4.605702492, -0.733491271
0.03155071, -3.159903906, -0.933293788
0.508714309, 4.262567688, -0.756707656
0.924246765, 3.959893019, -0.750492361
0.749654722, 3.841334879, -0.760482246
0.586923149, 3.725145865, -0.770460869
0.426886997, 3.578521123, -0.773660451
0.645483839, 3.294395391, -0.782380316
0.502537711, 3.187388507, -0.785525823
0.465227163, -3.661195048, -0.938124723
0.689131125, 2.921435396, -0.790651194
0.436228491, 2.762115916, -0.794398615
0.323003696, 2.704474308, -0.8044171
-0.378587963, -6.283154787, -0.984011978
1.080646378, 6.788779398, -0.629356127
1.38880412, 5.900564735, -0.663447033
1.101599938, 5.589321496, -0.677593297
0.629876322, 5.148105991, -0.718301838
1.12493014, 4.768628019, -0.719042312
0.913204219, 4.619409884, -0.736116975
0.707842809, 4.423396603, -0.743774283
0.523105997, 4.271739688, -0.758617211
0.599281666, 3.729131793, -0.771661902
0.437388575, 3.57331273, -0.772820861
0.801502389, 3.369694383, -0.773404469
0.656919186, 3.299085627, -0.783969137
0.379901012, 3.09559479, -0.792774505
0.568659275, 2.844174365, -0.793314387
0.33293255, 2.71679777, -0.80838254
0.547395701, -7.033395195, -0.977033202
-1.394896058, -3.858657116, -0.956242652
1.102585942, 6.792312542, -0.629994314
0.798098602, 6.377285956, -0.651814149
1.407130993, 5.897243198, -0.663555812
0.872643803, 5.365722814, -0.699192706
0.645544252, 5.145166554, -0.718164687
0.924842501, 4.603993908, -0.734109074
0.719821616, 4.411467987, -0.742136348
0.534000428, 4.252525999, -0.755492438
0.771853076, 3.829926611, -0.759147042
0.664333869, 3.283690685, -0.780791493
0.519413155, 3.167945119, -0.781504718
0.391574481, 3.111723501, -0.797208913
0.701576946, 2.894596665, -0.784537904
0.576230348, 2.836744724, -0.791731466
0.454883089, 2.769828649, -0.797404596
0.340189819, 2.707199274, -0.805833364
-0.091523452, -5.197400936, -0.959396032
-1.606010303, -3.483635708, -0.975078115
0.818292928, 6.379741521, -0.652318643
-1.003863483, -3.334260671, -0.952399365
