x	y	z
-0.508252768, -3.359635965, -0.030483022
-0.631645366, -3.345899452, 0.00231771
-0.23518335, -3.040803988, 0.026456242
-0.392114496, -3.440160239, 0.062552774
-0.512602593, -3.393194283, 0.094657101
-0.651446022, -3.457737532, 0.130803418
-0.233787967, -3.026885139, 0.13722228
8.606227323, 12.06676604, -0.132966269
6.731656298, -4.629339741, -0.227918369
6.709132548, -5.785691203, -0.31866162
6.718506935, -5.380072548, -0.389795956
8.639708521, 12.03543192, -0.132912446
-0.368173571, -3.309026022, -0.060789583
-0.492081516, -3.321613022, -0.030124187
-0.619917433, -3.33995588, 0.002312264
-0.225705088, -3.039516794, 0.026438894
-0.379905687, -3.426440772, 0.062281827
-0.508919027, -3.440238493, 0.095925451
-0.640834742, -3.459719931, 0.130803418
8.68127675, 12.01535325, -0.13298421
3.476698956, -11.10661977, -0.212489707
6.762606537, -6.218998175, -0.256307078
6.850361978, -7.841417857, -0.374521752
8.695750962, 11.95793175, -0.132643316
-0.358664986, -3.316104082, -0.060899114
-0.484902245, -3.343888727, -0.030312575
-0.609488188, -3.340858454, 0.002311584
-0.215243066, -3.024235837, 0.026300106
-0.370677297, -3.439519288, 0.062498586
-0.503519112, -3.477398549, 0.096918069
-0.629143504, -3.455770911, 0.130580527
8.682196564, 11.86260856, -0.131880794
19.34124385, -2.270362795, -0.881926921
8.697792055, 11.8077366, -0.131566811
-0.356324372, -3.39176608, -0.062268247
-0.47955745, -3.380012227, -0.030626558
-0.597647638, -3.333853835, 0.002305458
-0.205624178, -3.01989374, 0.026256736
-0.320572162, -3.062766472, 0.055634579
-0.486118006, -3.431419629, 0.095594578
-0.616426779, -3.445880457, 0.130134729
8.710156376, 11.74886512, -0.131207976
6.809741739, -3.281278885, -0.210879576
6.971046638, -4.353308398, -0.295620223
6.853725413, -3.940768616, -0.358036813
8.763501884, 11.74532981, -0.131468136
-0.344395722, -3.377923094, -0.061994424
-0.468223423, -3.374534274, -0.03056376
-0.588977589, -3.344535303, 0.002311584
-0.196682658, -3.025499637, 0.026300106
-0.308850509, -3.040857008, 0.055219127
-0.474353698, -3.423983185, 0.095346421
-0.607408595, -3.456613407, 0.13046908
8.730443435, 11.62643252, -0.130436484
0.822563402, -3.502711425, 0.002449081
8.738338518, 11.56289619, -0.130023826
-0.332653748, -3.365033995, -0.061738847
-0.460152943, -3.392799919, -0.030716266
-0.580247641, -3.355194797, 0.00231771
-0.188697586, -3.047047848, 0.026482264
-0.29844206, -3.030844843, 0.055020431
-0.465590591, -3.43830002, 0.095704869
-0.585755422, -3.394451504, 0.128054362
8.611541304, 11.32272716, -0.127619628
19.34315552, -2.210446873, -0.881700662
5.370946267, -7.166184625, -0.249837351
7.846403989, 10.25127473, -0.115813959
-0.324234544, -3.38594428, -0.062103954
-0.446326722, -3.368421985, -0.030483022
-0.570955626, -3.362874496, 0.002321794
-0.178996004, -3.041623028, 0.026430219
-0.29009142, -3.041699523, 0.055201063
-0.455170961, -3.440703284, 0.095732436
-0.583517271, -3.444511041, 0.129874688
7.889411157, 10.24220611, -0.115984406
5.299224402, -11.23624914, -0.346576465
7.907318944, 10.20056587, -0.115787048
-0.311907765, -3.366016298, -0.061720593
-0.43599045, -3.369775584, -0.030483022
-0.558827799, -3.353759952, 0.002314306
-0.169496549, -3.039162683, 0.026404196
-0.279839526, -3.032619047, 0.055020431
-0.443332328, -3.432169542, 0.095456712
-0.562294266, -3.382209345, 0.12745997
7.891831841, 10.11633851, -0.11510526
6.776264005, -3.290801824, -0.210154516
6.94412161, -4.366163794, -0.295045068
6.857163815, -3.970787869, -0.358851132
7.910481895, 10.07634845, -0.114925843
-0.302828287, -3.380899073, -0.06197617
-0.424272156, -3.360184309, -0.030384343
-0.548535968, -3.355458606, 0.002314306
-0.160592682, -3.047656936, 0.026473589
-0.270534283, -3.033463435, 0.055020431
-0.433300555, -3.437480736, 0.095567004
-0.549341395, -3.368138021, 0.126865577
7.923382164, 10.02927751, -0.114665683
7.895618639, 9.931344412, -0.113822427
6.705987123, -6.382831822, -0.333004078
-0.293315848, -3.39177353, -0.062158717
-0.412861271, -3.352538023, -0.030303605
-0.536655959, -3.347251885, 0.0023075
-0.150250749, -3.028160589, 0.026300106
-0.260283092, -3.02332147, 0.054821739
-0.42360626, -3.445738991, 0.095760011
-0.539321125, -3.371781158, 0.126939875
7.91855427, 9.897704376, -0.113714773
6.788110466, -5.176527714, -0.238152814
7.899343149, 9.81183079, -0.113006074
19.35183205, -2.151313363, -0.881791201
-0.283074805, -3.394650212, -0.062195224
-0.40221636, -3.350810449, -0.030276693
-0.527315868, -3.35480984, 0.002311584
-0.14109925, -3.031603903, 0.026326129
-0.250427527, -3.017130792, 0.054695295
-0.412676115, -3.444044672, 0.095677294
-0.52835491, -3.369470947, 0.12679128
7.916818856, 9.772010284, -0.112826657
7.927806646, 9.724424156, -0.112557534
8.742960309, 11.55585121, -0.264571605
6.796662987, -3.32651638, -0.211102662
6.907895634, -4.373015134, -0.294074526
6.944189175, -4.04968078, -0.364053842
-0.272258693, -3.390519509, -0.062103955
-0.392979478, -3.360967297, -0.030357432
-0.51565076, -3.347516667, 0.002305458
-0.131146372, -3.017037296, 0.026196016
-0.241647796, -3.023865, 0.054803675
7.960139526, 9.703149078, -0.112593416
8.7765551, 11.52658741, -0.264516828
-0.402803258, -3.45125192, 0.095842727
-0.51877389, -3.376014611, 0.126977023
8.000693012, 9.691791405, -0.112745922
7.884471058, 10.28933029, -0.236677763
7.679001257, -0.022478377, -0.276209345
-0.259546313, -3.361432795, -0.0615563
8.034223579, 9.671814563, -0.112799745
7.911727063, 10.25955089, -0.236549971
-0.390016596, -3.426737635, -0.030940536
-0.504781469, -3.345127729, 0.002302735
-0.121970325, -3.019423898, 0.026213365
-0.233135472, -3.034560987, 0.054984307
-0.347417737, -3.058158636, 0.084896364
-0.51109143, -3.395377529, 0.127645713
8.077326131, 9.663232348, -0.112988133
7.898417478, 10.17756848, -0.235217345
19.35039532, -2.091073985, -0.881429222
8.118520336, 9.652181197, -0.113149609
7.906834415, 10.12413257, -0.234541906
-0.251449736, -3.392126179, -0.062103955
-0.380932119, -3.440838585, -0.03105716
-0.495393445, -3.352596172, 0.002306819
-0.11285548, -3.023780772, 0.026248062
-0.223677406, -3.033267833, 0.054948179
-0.33616744, -3.042319333, 0.084427633
-0.501255009, -3.400884001, 0.127794308
8.186855107, 9.673024862, -0.113687862
7.885342136, 10.03300856, -0.232990218
5.262185212, -11.24702176, -0.346409154
6.798079398, -3.353101071, -0.211465192
6.805959351, -4.33778969, -0.290300181
6.931732262, -4.070965801, -0.364053842
8.221679631, 9.65395261, -0.113759626
7.890656131, 9.976617523, -0.232241762
-0.241891878, -3.404849455, -0.062323016
-0.369732071, -3.436025763, -0.031003334
-0.485678042, -3.358059004, 0.002309542
-0.103475425, -3.021114769, 0.026222039
-0.213806652, -3.025960787, 0.054803675
-0.324056965, -3.01749496, 0.083710738
-0.496954099, -3.444935808, 0.129391741
8.285094321, 9.668167527, -0.114226114
7.893830481, 9.917941635, -0.23143853
21.72450254, 1.53857023, -0.783371975
5.379061519, -7.131317703, -0.249195946
8.330389156, 9.660878165, -0.114441413
7.903595118, 9.867924311, -0.230836121
-0.229817789, -3.381634923, -0.061884893
-0.359916283, -3.444105636, -0.031066131
-0.476494214, -3.367454279, 0.002314987
-0.094019311, -3.015421069, 0.026169993
-0.203915448, -3.017624465, 0.054641107
-0.315420013, -3.024440312, 0.083876178
-0.485405347, -3.439517872, 0.129131701
8.366542047, 9.642828605, -0.114531126
7.896813913, 9.797700682, -0.229759065
5.292702759, -6.453927247, -0.15239383
5.545281627, -6.285172748, -0.23383036
19.35671908, -2.031697835, -0.881429222
8.43159887, 9.657792501, -0.115015548
7.912349572, 9.755566722, -0.229339195
-0.219247801, -3.379330869, -0.061830124
-0.348742938, -3.439224573, -0.031012304
-0.46602372, -3.367909779, 0.002314306
-0.085104846, -3.027690282, 0.026274083
-0.19504264, -3.024222422, 0.054749483
-0.3035231, -2.999535776, 0.083159284
-0.472528441, -3.42416214, 0.12850016
8.481647687, 9.655167898, -0.115293648
7.935288063, 9.722725509, -0.229138387
6.789550724, -3.374831239, -0.211520967
8.513878041, 9.632098524, -0.11532953
7.9650796, 9.69833494, -0.229138387
6.787572806, -4.355411434, -0.290084531
6.840103958, -4.045427549, -0.35989168
-0.208879128, -3.379987476, -0.061830123
-0.336429021, -3.422365334, -0.030850828
-0.455554882, -3.368332822, 0.002313626
-0.075965808, -3.033934876, 0.026326129
-0.186192558, -3.031792391, 0.054875927
-0.297051634, -3.028308534, 0.08393132
-0.466295293, -3.457286646, 0.129688931
8.516806726, 9.576044526, -0.114970695
7.996706899, 9.676164665, -0.229193149
9.854474132, 11.0118596, -0.132571552
8.037223346, 9.664654692, -0.229503495
-0.198742927, -3.384604909, -0.061903147
-0.325927761, -3.423381503, -0.030850828
9.890888202, 10.98454668, -0.132607434
8.082878131, 9.659120582, -0.229959873
-0.442599139, -3.34988691, 0.002300012
-0.066789247, -3.040152033, 0.026378173
-0.177472531, -3.042330649, 0.055056559
-0.288515779, -3.037166639, 0.084151902
-0.455555774, -3.457710105, 0.129651782
9.923199558, 10.95266862, -0.132589493
8.125353328, 9.64957353, -0.230324981
19.36286114, -1.972302757, -0.881429222
9.975617225, 10.9428644, -0.132840667
8.189822115, 9.665792979, -0.231310753
-0.188247079, -3.383202014, -0.061866639
-0.313497321, -3.40345472, -0.03066244
-0.432959475, -3.356187862, 0.002303416
-0.057556353, -3.045341587, 0.026421545
-0.167200168, -3.025889439, 0.054749483
-0.278556162, -3.031069437, 0.083958894
-0.445455492, -3.463056161, 0.129800391
10.05172606, 10.95863305, -0.133405838
8.240195548, 9.664967537, -0.231894908
6.794358547, -3.403256105, -0.211995048
6.789288046, -4.385976246, -0.29073154
6.783029443, -4.039812746, -0.357539144
5.422887149, -6.245999203, -0.297525337
10.09615003, 10.93950111, -0.133549366
8.292594547, 9.666201197, -0.23253384
-0.177394323, -3.37477767, -0.061702339
-0.303586171, -3.410376467, -0.030716266
-0.422660795, -3.357500352, 0.002303416
-0.048228935, -3.046503756, 0.026430219
-0.158749699, -3.042364039, 0.055038495
-0.268813546, -3.026931294, 0.083821029
-0.433211023, -3.451516428, 0.129317444
8.347037246, 9.669474876, -0.233227534
5.182121912, -6.826559688, -0.23910096
8.395022573, 9.664956207, -0.233738688
-0.166199674, -3.358329566, -0.061392
-0.293892345, -3.420258396, -0.030797005
-0.412845566, -3.362751487, 0.002306138
-0.038843882, -3.043637585, 0.026404196
-0.148483403, -3.023862612, 0.054695295
-0.25909892, -3.022761895, 0.083683164
-0.423348323, -3.458780737, 0.129540336
8.443057474, 9.660234509, -0.234249828
5.224709354, -11.25676569, -0.346213949
8.493123673, 9.657561415, -0.23481573
6.788347716, -3.42633698, -0.212134478
6.756531524, -4.394253031, -0.289904793
6.792021446, -4.073448572, -0.358670172
8.524700012, 9.633705414, -0.234870506
-0.146717174, -3.16106956, -0.057777485
-0.28331521, -3.420147462, -0.030788034
-0.403239693, -3.369959771, 0.002310222
-0.029535032, -3.046742112, 0.026430219
-0.139481465, -3.030296649, 0.054803675
-0.249494744, -3.019557827, 0.083572873
-0.362785368, -3.041323299, 0.113863249
10.30614759, 11.5751558, -0.28297278
6.729893891, -6.366348816, -0.333219757
6.803960141, -5.155677544, -0.238152814
19.34993302, -1.911023601, -0.880569664
10.36629597, 11.57103629, -0.28364822
-0.135416653, -3.124545617, -0.057102045
-0.274649355, -3.443926761, -0.030994363
-0.39174127, -3.361248103, 0.002303416
-0.02011474, -3.035819263, 0.026334804
-0.130055267, -3.027713436, 0.054749483
-0.240625994, -3.025291333, 0.083710738
-0.352530479, -3.034480799, 0.113566053
10.40375549, 11.54140705, -0.283702967
6.787604813, -3.452131931, -0.212441233
6.758067929, -4.424814618, -0.290551831
-0.125105959, -3.10696401, -0.056773455
-0.264464409, -3.449738337, -0.031039216
-0.381089129, -3.359453406, 0.002301374
-0.010807998, -3.037866366, 0.026352152
-0.12036733, -3.018107823, 0.054568851
-0.231495798, -3.028008821, 0.083765887
-0.342433258, -3.028597189, 0.113306005
21.64935364, 1.466509844, -0.780496289
6.70851636, -4.051403411, -0.354915169
4.164967765, -11.88314011, -0.229905111
3.512566922, -11.10162141, -0.212599245
0.828210431, -3.478769468, 0.002434106
-0.114458488, -3.077358935, -0.0562258
-0.254980164, -3.465492421, -0.03117378
-0.371109666, -3.363588629, 0.002303416
-0.001481048, -3.023885761, 0.026230713
-0.110886666, -3.012468044, 0.054460475
-0.221327203, -3.016741366, 0.083435014
-0.332703123, -3.025660165, 0.113157403
5.496108337, -7.221550912, -0.32642596
6.986645439, -7.354495362, -0.2829947
-0.1045053, -3.062706737, -0.055951973
-0.242237497, -3.436333906, -0.030904654
-0.363027515, -3.385591628, 0.00231771
0.007785797, -3.01987628, 0.026196016
-0.101644018, -3.012793955, 0.054460475
-0.211790608, -3.013417519, 0.083324723
-0.322038632, -3.013749277, 0.112674464
19.32587121, -1.848795915, -0.879212465
6.783209163, -3.476130802, -0.212636438
6.786531052, -4.126985193, -0.35971072
-0.095232681, -3.067010466, -0.056024992
-0.218982622, -3.248496599, -0.029209159
-0.350464079, -3.365802446, 0.002303416
0.017061903, -3.021838211, 0.026213365
-0.092829476, -3.02708283, 0.054713359
-0.203080756, -3.022032221, 0.083545305
-0.312894206, -3.015716945, 0.112711613
5.867130949, -9.717867019, -0.40831103
5.029485141, -6.583449261, -0.231125352
-0.085571096, -3.058293182, -0.055860696
-0.200413361, -3.115434746, -0.028007062
-0.339533241, -3.360892226, 0.002299331
0.026289122, -3.016772021, 0.026169993
-0.083735147, -3.034349543, 0.054839799
-0.194639859, -3.035609345, 0.083903745
-0.303640643, -3.016662724, 0.112711613
4.976888723, -11.92387768, -0.235911039
5.137892416, -11.15924257, -0.342728091
6.772512414, -3.496925013, -0.212636438
6.755946811, -4.136831413, -0.358760652
-0.076262678, -3.061539962, -0.055915462
-0.18614723, -3.039182058, -0.027316306
-0.329220555, -3.361917887, 0.002299331
0.035638576, -3.02467626, 0.026239388
-0.074327442, -3.030593908, 0.054767547
-0.182463421, -2.989297369, 0.082607829
-0.293899088, -3.012607169, 0.112525862
5.304179622, -6.461307124, -0.300688585
19.37323146, -1.793363652, -0.881112543
-0.066607672, -3.049764207, -0.055696403
-0.176938417, -3.041735512, -0.027334247
-0.320320877, -3.377845162, 0.002309542
0.04497738, -3.028552159, 0.026274083
-0.065115148, -3.034806202, 0.054839799
-0.174506184, -3.010799959, 0.083186858
-0.28268165, -2.992602101, 0.111745727
6.76175207, -3.517686492, -0.212636438
-0.057438456, -3.059950836, -0.055878953
-0.169035846, -3.068223546, -0.027567489
-0.308768716, -3.36586647, 0.002300693
0.054071554, -3.017401947, 0.026178667
-0.055749048, -3.031992758, 0.054785611
-0.165377917, -3.013317495, 0.083242
-0.275681315, -3.017339352, 0.112637315
6.790185804, -4.53567526, -0.29371508
6.745774313, -4.159111894, -0.358896372
-0.048034693, -3.059112972, -0.055860696
-0.158375223, -3.044761199, -0.02735219
-0.298529238, -3.367793994, 0.002301374
0.06406299, -3.052212858, 0.026482264
-0.046324253, -3.024151763, 0.054641107
-0.155770387, -3.006822549, 0.083048992
-0.267301648, -3.028125277, 0.113008809
5.894321214, -9.695551874, -0.408131292
5.234878591, -6.808898746, -0.239602921
19.28710161, -1.725728419, -0.87695041
7.551041143, -0.124153745, -0.210684371
-0.038876586, -3.077241524, -0.056189289
-0.149766473, -3.060214227, -0.027486753
-0.287939856, -3.365704856, 0.002299331
0.073282441, -3.046004072, 0.026430219
-0.037107301, -3.029278335, 0.054731423
-0.146593513, -3.008284802, 0.083076567
-0.25809506, -3.029926849, 0.113045958
6.765094006, -3.5458396, -0.213082624
6.762969822, -4.547563677, -0.293139925
6.738074939, -4.182949512, -0.359167841
-0.029378181, -3.071347479, -0.056079758
-0.140697868, -3.067651601, -0.027549548
-0.253861923, -3.078550044, 0.002102615
0.082871162, -3.054761039, 0.026508286
-0.027721638, -3.019379987, 0.054550791
-0.1375459, -3.01271463, 0.083186858
-0.247898797, -3.019748816, 0.112637315
21.7335327, 1.405242166, -0.783371975
-0.020000753, -3.078421954, -0.056207546
-0.130901034, -3.059077479, -0.02746881
-0.243149873, -3.063364526, 0.002091724
0.09296706, -3.07848066, 0.026716467
-0.018415396, -3.012452078, 0.054424347
-0.128685109, -3.022110934, 0.083435014
-0.238239629, -3.015514058, 0.112451565
11.61869392, 10.98620788, -0.291954306
4.98653993, -12.05087739, -0.238119913
5.098649154, -11.1640414, -0.34239347
6.766558929, -3.573112647, -0.213473034
6.755606695, -4.572771899, -0.293427487
6.748929064, -4.218427472, -0.360434559
11.65015856, 10.94845675, -0.29189953
-0.010525337, -3.069470391, -0.05604325
-0.120721612, -3.039481247, -0.027289392
-0.234435048, -3.073070123, 0.002097851
0.101945764, -3.064189188, 0.026595028
-0.009158014, -3.007495394, 0.054334031
-0.119767948, -3.031481231, 0.083683164
-0.229440935, -3.022209575, 0.112674464
11.66469554, 10.89491851, -0.291424898
19.36993564, -1.673254351, -0.880479183
11.68047906, 10.84275548, -0.290986774
6.746087919, -5.894973529, -0.405720767
7.630348995, -0.102042883, -0.212887419
5.408268873, -6.267903103, -0.297776958
-0.001112978, -3.082485981, -0.056280566
-0.111688996, -3.047831466, -0.02736116
-0.223910793, -3.058814869, 0.00208764
0.11076502, -3.047873284, 0.026456242
6.86E-5, -2.995511305, 0.054117272
-0.110394143, -3.029836331, 0.083628022
-0.219441939, -3.012932454, 0.112302971
11.65563518, 10.75330951, -0.28954461
11.69078131, 10.71952665, -0.289599386
6.699883799, -6.299123199, -0.33077543
6.742284377, -5.076456674, -0.235447792
7.069736182, -3.760989401, -0.223400724
0.008400797, -3.103471409, -0.056663924
-0.102270751, -3.046160933, -0.027343217
-0.214245648, -3.055497283, 0.002084918
11.70218199, 10.66407918, -0.289069978
0.12011524, -3.047519007, 0.026456242
0.009271079, -2.999496234, 0.054189527
-0.101264881, -3.035156094, 0.083765887
-0.210197358, -3.013591642, 0.112302971
11.71187092, 10.60732135, -0.288504062
6.782839274, -4.62161248, -0.295224806
6.868696377, -4.322650363, -0.367537406
5.356501935, -6.444010087, -0.301407506
11.71983569, 10.54926557, -0.287901667
0.017823918, -3.086434061, -0.056353585
-0.092589416, -3.035465999, -0.027244538
-0.206074444, -3.07409988, 0.00209717
0.12937944, -3.045138153, 0.026438894
0.018497991, -3.003453011, 0.054261779
-0.092164551, -3.042446605, 0.083958895
-0.200751381, -3.011230998, 0.112191518
13.63072987, 12.19380835, -0.333922831
7.680033446, 0.001080713, -0.276245286
5.333429433, -6.893212224, -0.243144539
6.727602563, -5.558854285, -0.395224866
19.36601914, -1.613074002, -0.880072024
7.646618955, -0.078797629, -0.213333604
13.65985592, 12.14462552, -0.333722023
0.026895024, -3.041374167, -0.055532107
-0.083605348, -3.047730754, -0.02735219
-0.195110497, -3.050766533, 0.002080834
0.138539138, -3.040731198, 0.026404196
0.027878421, -3.021378236, 0.054586915
-0.082557998, -3.032722592, 0.083683164
-0.191512103, -3.011832682, 0.112191518
13.65958887, 12.06955806, -0.332809267
7.085477243, -3.797299116, -0.224265215
6.778518317, -4.649183109, -0.295656165
7.016576819, -4.445825896, -0.376178411
13.68528381, 12.01769824, -0.332535443
0.03672586, -3.083267417, -0.05629882
-0.074400774, -3.053970892, -0.027406014
-0.185567662, -3.048356303, 0.002078792
0.148304499, -3.049280841, 0.026482264
0.037332136, -3.036275051, 0.054857863
-0.072818899, -3.014973629, 0.083186858
-0.183659185, -3.035348276, 0.113045958
12.03093372, 10.49973676, -0.29155269
11.83800667, 10.26755424, -0.286112664
0.04579565, -3.057147456, -0.055824188
-0.065137405, -3.059183426, -0.027450869
-0.176387665, -3.051906278, 0.002080834
0.157503952, -3.045815599, 0.026456242
0.046570322, -3.031147546, 0.054767547
-0.063674101, -3.020179826, 0.083324723
-0.173429303, -3.019934862, 0.112451565
5.002668081, -12.19562437, -0.240675626
5.06189939, -11.17416874, -0.34222613
12.1976773, 10.44905552, -0.293250409
7.021017446, -3.79052607, -0.222592008
6.755176539, -4.663712081, -0.295260748
6.826041875, -4.354506525, -0.366677818
0.055102461, -3.052993934, -0.055751165
13.73554835, 11.693588, -0.329359052
-0.055678778, -3.055369652, -0.027414985
-0.166040259, -3.034459899, 0.002068582
0.167011753, -3.048313423, 0.026482264
0.055961665, -3.03598878, 0.054857863
-0.054966141, -3.051344303, 0.084179477
-0.164271924, -3.022448358, 0.112525863
13.57977215, 11.48929937, -0.324777005
19.33104478, -1.550457725, -0.878262368
7.654821288, -0.055395629, -0.213556704
13.61036501, 11.44372214, -0.324667481
0.064510875, -3.054809679, -0.055787677
-0.046395687, -3.061525332, -0.02746881
-0.157142471, -3.042944381, 0.002074027
0.176536352, -3.050781662, 0.026508287
0.065275685, -3.035802701, 0.054857863
-0.045126486, -3.01951428, 0.083297149
-0.155458957, -3.031920078, 0.112860207
12.5896837, 10.51976312, -0.299548415
21.75170747, 1.339417924, -0.783875217
13.12111319, 10.89563164, -0.311396001
0.074148535, -3.065592328, -0.055988485
-0.036978675, -3.059653439, -0.027450869
-0.148242684, -3.052401591, 0.002080153
0.187172613, -3.071185872, 0.026690444
0.07441717, -3.028591599, 0.054731423
-0.036171184, -3.045626867, 0.084014037
-0.146252642, -3.034378933, 0.112934512
13.02492402, 10.74841356, -0.308329133
6.867095657, -3.734680473, -0.218074349
6.75560816, -4.694679864, -0.295907785
6.771463454, -4.348975687, -0.364461031
5.352382032, -7.410708517, -0.166906653
13.09262773, 10.73693379, -0.309150634
0.083171893, -3.051357934, -0.055732911
-0.027555547, -3.055752824, -0.027414985
-0.138650135, -3.047847159, 0.00207675
0.19640232, -3.067603482, 0.026664423
0.084288562, -3.04933744, 0.055110747
-0.026774334, -3.039726018, 0.083848604
-0.136942609, -3.034813354, 0.112934512
13.0704783, 10.65186941, -0.307854501
19.32774334, -1.490529018, -0.877900448
7.662952076, -0.031944042, -0.21377979
13.08134044, 10.59410009, -0.307343361
0.092290462, -3.043093521, -0.055586872
-0.018097212, -3.041823828, -0.027289392
-0.129171676, -3.045260851, 0.002074708
0.205946577, -3.068981846, 0.02668177
0.093674097, -3.050063969, 0.055128811
-0.017402558, -3.031796923, 0.083628022
13.16051632, 10.59152936, -0.308438686
-0.127295412, -3.027231884, 0.112637316
13.23120941, 10.58170301, -0.309333173
3.548436976, -11.09650614, -0.212708769
6.872262764, -3.764856025, -0.218604204
6.74854363, -4.720539142, -0.29623129
6.773188767, -4.37949307, -0.36527535
13.34971321, 10.60948855, -0.311341253
0.1061317, -3.177698324, -0.058051312
-0.008753419, -3.03786524, -0.027253509
-0.119474526, -3.036649925, 0.002068582
0.215221083, -3.066340689, 0.026664423
0.103098634, -3.051760604, 0.055164939
-0.008074345, -3.02183982, 0.083352291
-0.11804632, -3.028606586, 0.112674464
13.55482319, 10.70481037, -0.315357355
0.862807046, -3.575365928, 0.002503535
6.749523141, -6.003490062, -0.324916234
6.725042387, -4.778372154, -0.230149311
4.931710565, -12.12848339, -0.239050923
5.026364707, -11.18691044, -0.342142475
13.61513027, 10.68477758, -0.315996287
0.123350511, -3.382187407, -0.061793616
5.65915E-4, -3.033877785, -0.027217626
-0.109758917, -3.026009322, 0.002061094
0.22616201, -3.086608913, 0.02684658
0.112203053, -3.044435937, 0.055038495
0.001194984, -3.017851985, 0.083242
-0.109399559, -3.046930683, 0.113343154
13.63365418, 10.63188966, -0.315667716
19.31130359, -1.429676546, -0.87695041
7.662014356, -0.008433187, -0.213751909
13.61878915, 10.55326676, -0.314572392
0.13341029, -3.373800627, -0.061647577
0.009889991, -3.038861525, -0.027262481
-0.100342009, -3.022334098, 0.002058371
0.235402133, -3.082909371, 0.026820557
0.121343271, -3.039082256, 0.054948179
0.010502094, -3.031828731, 0.083628022
-0.099624883, -3.034267973, 0.112860207
13.647141, 10.50838572, -0.314481137
6.830923274, -3.769501438, -0.217656044
6.741383456, -4.746398753, -0.296554794
6.758046675, -4.399162693, -0.36518487
5.402024776, -6.29963855, -0.298495879
13.62135005, 10.42211513, -0.313148496
0.144569174, -3.392354888, -0.061994423
0.01915614, -3.029817412, -0.027181743
-0.090978799, -3.01962898, 0.002056329
0.245492801, -3.09014726, 0.02688995
0.130580567, -3.03669782, 0.054912055
0.019797035, -3.030782465, 0.083600447
-0.089958666, -3.022572746, 0.112414416
13.62142293, 10.35607186, -0.31241828
5.276667236, -6.474785183, -0.152503354
5.372740892, -7.39101761, -0.166833637
13.62122035, 10.29012578, -0.311688093
5.523995804, -6.299901226, -0.233746705
0.155797514, -3.409873677, -0.062323016
0.028657977, -3.051742662, -0.027379101
-0.081822475, -3.023892579, 0.002059052
0.25702831, -3.114294008, 0.027106805
0.139988453, -3.038280411, 0.054948179
0.029181615, -3.039703746, 0.083848604
-0.08145838, -3.051804193, 0.113491748
13.6327348, 10.23328241, -0.3112317
6.723412268, -5.838877437, -0.403277751
6.70384366, -6.26420999, -0.330020567
13.63521335, 10.16989006, -0.310574529
6.808841612, -3.784612913, -0.217321408
6.765112517, -4.794216574, -0.298244258
6.783788828, -4.445610357, -0.367311206
6.734615361, -5.038382457, -0.234639076
0.165186756, -3.387409411, -0.0619214
0.038120119, -3.059639344, -0.027450869
-0.072712792, -3.031127331, 0.002063817
0.284495898, -3.322717315, 0.028928382
0.149652674, -3.044827095, 0.055074623
0.038557808, -3.043597951, 0.083958894
13.63984167, 10.10836489, -0.309972105
-0.072236782, -3.058033949, 0.113714647
13.67239947, 10.06765641, -0.310008613
19.3096205, -1.369999344, -0.87667897
7.656006407, 0.015061783, -0.213584584
0.176872456, -3.411848974, -0.062377778
0.047320479, -3.047510039, -0.027343217
13.63221308, 9.973709904, -0.308402178
-0.063496741, -3.035335102, 0.002066539
0.297692824, -3.355694564, 0.029223304
0.159201957, -3.048347511, 0.055146875
0.04758067, -3.023475519, 0.08340744
-0.062998267, -3.065235002, 0.113974695
13.67811411, 9.94301, -0.308749018
6.792837519, -3.803042672, -0.217181978
6.745490603, -4.811467086, -0.298028579
13.68666944, 9.885193196, -0.308256117
0.187339031, -3.411290328, -0.062377778
0.056595515, -3.043351286, -0.027307335
-0.054326944, -3.043514431, 0.002071985
0.307163809, -3.345803413, 0.029145237
0.168498202, -3.046846334, 0.055128811
0.056818749, -3.021316476, 0.083352291
-0.053541557, -3.062416257, 0.113863249
13.69662495, 9.82858362, -0.307799754
21.86745025, 1.279214724, -0.787901213
13.75439312, 9.806250871, -0.308420417
0.19780385, -3.410699474, -0.062377778
0.065910456, -3.042163687, -0.027298363
-0.044974535, -3.042666975, 0.002071304
0.321017087, -3.382673988, 0.029474856
0.176970923, -3.031343052, 0.054857863
0.066350087, -3.033120399, 0.083683164
-0.043886687, -3.044580458, 0.113194552
19.27984547, -1.308451967, -0.875140753
7.645928157, 0.038499675, -0.213305724
0.208266799, -3.410076651, -0.062377778
0.074823019, -3.024952909, -0.027145859
-0.035721538, -3.049790072, 0.002076069
0.333734078, -3.405557951, 0.029683037
0.187128795, -3.044757299, 0.055110747
0.075879605, -3.041896385, 0.08393132
-0.034670553, -3.055692471, 0.113603201
4.993240537, -11.20501688, -0.34222613
6.781138113, -3.823864935, -0.217181978
6.759922689, -4.853121034, -0.299322655
5.169491469, -6.55576199, -0.232910094
0.219111855, -3.41540831, -0.062487309
0.084047505, -3.022710031, -0.027127918
-0.026382034, -3.051885379, 0.00207743
0.341263841, -3.375666029, 0.029431485
0.196919857, -3.051153197, 0.055237191
0.085015707, -3.034654677, 0.083738313
-0.025370104, -3.064777905, 0.113937546
5.295028055, -7.237322296, -0.163730261
4.08955513, -12.0213061, -0.231840146
6.726463003, -4.656229034, -0.228225124
6.757018911, -5.863229013, -0.321788927
19.29174361, -1.249812795, -0.875502673
0.229857432, -3.418710291, -0.062560332
0.093968712, -3.043427081, -0.027316306
-0.017007705, -3.04995187, 0.002076069
0.356903794, -3.425326731, 0.029873868
0.206751928, -3.057517602, 0.055363631
0.094263377, -3.032381354, 0.083683164
-0.01591011, -3.053849034, 0.113528904
6.778198743, -5.462087757, -0.394229558
6.771982432, -3.84613223, -0.217265633
6.774971992, -4.895493447, -0.300652643
0.239853874, -3.411007562, -0.062432547
0.103508933, -3.04912088, -0.027370131
-0.00762793, -3.040989763, 0.002069943
0.368904405, -3.438135285, 0.029995305
0.216765933, -3.065844885, 0.055526202
0.103497896, -3.030079877, 0.083628022
-0.006519555, -3.043890507, 0.113157404
5.426063025, -6.383132102, -0.23371881
5.166193718, -6.541624334, -0.152193022
0.36118294, -3.289945621, -0.092333016
0.251195884, -3.422221419, -0.062651602
0.112604073, -3.041793906, -0.027307335
0.001697255, -3.032998715, 0.002064498
0.378133936, -3.425060139, 0.029891215
0.225067165, -3.050208694, 0.055255255
0.113016702, -3.035741561, 0.083793455
0.00282918, -3.054888477, 0.113566053
19.28252498, -1.189820809, -0.874914553
6.769695387, -3.872349864, -0.217572389
6.783359116, -4.933301448, -0.301695098
6.770161545, -4.556411351, -0.369573232
7.619559842, 0.085123153, -0.212580663
0.372059603, -3.295775312, -0.092528222
0.260245157, -3.402493051, -0.062304755
0.1222561, -3.04942744, -0.027379101
0.011002356, -3.032979413, 0.002064498
0.386610071, -3.405999466, 0.029735081
0.236646398, -3.078413842, 0.055779086
0.12216868, -3.031385353, 0.083683164
0.012149545, -3.041874576, 0.113083106
21.86029633, 1.211512031, -0.787505796
5.239270763, -11.85480702, -0.36157955
0.38343612, -3.305540789, -0.092834977
0.270127482, -3.39470204, -0.062176971
0.131999134, -3.05802941, -0.027459839
0.020287267, -3.029931461, 0.002062455
0.396478552, -3.399831251, 0.029691709
0.24513342, -3.065713254, 0.055562327
0.131858124, -3.039984313, 0.08393132
0.021566514, -3.05381426, 0.113528904
9.7846266, -15.55214721, -0.660903861
0.391920395, -3.290452532, -0.092444559
0.2812823, -3.402825207, -0.062341271
0.142304179, -3.077587886, -0.027639257
0.02958287, -3.029854901, 0.002062455
0.405718485, -3.388670045, 0.029604968
0.255944481, -3.081885847, 0.055869402
0.141184042, -3.039565547, 0.08393132
0.031087223, -3.068722712, 0.114086141
19.18137166, -1.124518493, -0.870164242
7.670237741, 0.109225124, -0.21400289
6.75431848, -3.891104744, -0.217460838
6.787545971, -4.968255928, -0.302557787
6.796676327, -4.604615767, -0.371790048
5.194550875, -6.546135844, -0.233133194
5.311871425, -7.21379704, -0.163565961
0.40383258, -3.304118003, -0.092862864
0.291635283, -3.400950029, -0.062323017
0.152533444, -3.093116591, -0.02778279
0.038865362, -3.028750023, 0.002061775
0.404286643, -3.291136674, 0.028763573
0.265741603, -3.085070564, 0.055941654
0.150706407, -3.043111662, 0.084041611
0.040027, -3.032640801, 0.112748761
6.722387526, -5.801905339, -0.402146724
6.713510864, -6.234772785, -0.329553267
6.758063484, -5.023660754, -0.234917951
0.411481297, -3.283026545, -0.092305129
0.300829165, -3.386096512, -0.062067439
0.161865326, -3.089638307, -0.027755879
0.048141355, -3.027616516, 0.002061094
0.423129314, -3.359329458, 0.029370766
0.275471793, -3.087228389, 0.055995842
0.159516761, -3.032652571, 0.083765887
0.049769682, -3.059481587, 0.113751796
4.539878401, -14.04818886, -0.269555239
0.873296896, -3.570759365, 0.002502174
6.761370832, -3.922844604, -0.218074349
6.752961381, -4.97483085, -0.301695098
0.420277966, -3.271833958, -0.092026261
0.304534152, -3.312476367, -0.060734814
0.171675713, -3.095117866, -0.027809704
0.057505593, -3.031454018, 0.002063817
0.433817621, -3.360990793, 0.029396787
0.287699484, -3.116236889, 0.056537738
0.168986773, -3.035143164, 0.083848604
0.058672822, -3.034336374, 0.112823059
7.680993136, 0.024645924, -0.276281228
6.790770687, -4.63107434, -0.372242447
19.19969224, -1.06649661, -0.870842841
7.683859174, 0.132998754, -0.2143933
0.428618661, -3.257645372, -0.091663731
0.312803493, -3.29161942, -0.060369713
0.200982471, -3.432983421, -0.030850828
0.066893825, -3.035262175, 0.002066539
0.444913238, -3.365592036, 0.029448833
0.321951011, -3.374121717, 0.061234163
0.178356296, -3.03560837, 0.083876178
0.068272757, -3.047129974, 0.113306005
6.626858849, -6.245982709, -0.254048241
5.396284191, -6.332155167, -0.299250771
0.437410003, -3.247399007, -0.09141275
0.323388757, -3.295619493, -0.06046099
0.214712009, -3.484250034, -0.031317316
0.076556975, -3.049038356, 0.002076069
0.456443439, -3.373129613, 0.0295269
0.341809491, -3.469635123, 0.062986294
0.187791944, -3.037042249, 0.08393132
0.076984662, -3.021931553, 0.112377268
6.757071389, -3.948108292, -0.218325329
6.771383618, -5.020523473, -0.303204825
6.77323663, -4.649624888, -0.372061488
0.445733128, -3.234158787, -0.091078115
0.332289732, -3.282674893, -0.060241928
0.22591705, -3.491557962, -0.03138908
0.086502448, -3.06978087, 0.002090363
0.46610427, -3.366760917, 0.029483531
0.349117043, -3.435744673, 0.06239021
0.197108574, -3.036451932, 0.08393132
0.08636951, -3.025676652, 0.112525862
9.837106557, -15.5296533, -0.661227336
5.218351831, -6.534854748, -0.233300519
5.33219178, -7.195056547, -0.163511199
21.88087477, 1.145328023, -0.788116862
0.457327433, -3.244654058, -0.09141275
0.342670505, -3.284623322, -0.060296697
0.235004876, -3.466904427, -0.031173781
0.095795058, -3.065503003, 0.00208764
0.476711487, -3.367295122, 0.029500877
0.360593275, -3.443607012, 0.062552774
0.206762419, -3.040819507, 0.084069186
0.095714909, -3.027395172, 0.112600167
19.17693758, -1.006226876, -0.869666603
7.683414845, 0.156571875, -0.2143933
13.53534201, 8.319693224, -0.443231923
6.755265592, -3.974903578, -0.218659979
0.469417992, -3.2580766, -0.091831056
0.35146442, -3.271627171, -0.060077635
0.244650473, -3.4522027, -0.03104819
0.104753532, -3.052202167, 0.002078792
0.487039982, -3.365816804, 0.029500877
0.371477959, -3.445466661, 0.062606963
13.53520663, 8.26250359, -0.442395342
0.217720614, -3.063104217, 0.084703357
0.105487376, -3.041069171, 0.113120255
13.54852498, 8.213684142, -0.442004931
6.78077808, -5.059801565, -0.304319163
6.75894003, -4.670383036, -0.372061488
13.54625578, 8.155580449, -0.441112531
0.47926583, -3.255632113, -0.091803168
0.362708267, -3.281465056, -0.060278436
0.25597799, -3.461408136, -0.031137898
0.113967601, -3.047869187, 0.002076069
0.497363853, -3.364306742, 0.029500877
0.381936503, -3.443317035, 0.062588902
0.226821345, -3.058434252, 0.084593066
0.115344635, -3.05471144, 0.11364035
13.54890684, 8.100645596, -0.4403875
5.019341951, -6.553292855, -0.29691427
6.828213712, -7.143702592, -0.275688363
13.54962792, 8.044751109, -0.439606649
0.489846205, -3.258100445, -0.091914711
0.371870815, -3.272389406, -0.060132397
0.265060096, -3.440666506, -0.030958481
0.123802982, -3.05949545, 0.002084237
0.506787422, -3.356832368, 0.029448833
0.392045561, -3.43815544, 0.062516647
0.236434393, -3.060713928, 0.084675782
0.124838135, -3.05733875, 0.113751796
13.56046775, 7.995019995, -0.439160478
19.18392561, -0.947585197, -0.869847563
7.678901169, 0.180049806, -0.21428175
6.766257889, -4.009368077, -0.21941292
13.55819099, 7.937723143, -0.438295973
6.765223169, -5.080581125, -0.304319163
6.744579267, -4.691097159, -0.372061488
0.498474739, -3.247689848, -0.091663731
0.381560785, -3.268253761, -0.060077635
0.276013986, -3.444820998, -0.031003334
0.132840821, -3.051108838, 0.002078792
0.517083637, -3.355261918, 0.029448833
0.401544934, -3.427999186, 0.062354082
0.247024112, -3.074920232, 0.085089371
0.134611821, -3.065926504, 0.114086141
13.54359113, 7.873482344, -0.437041086
13.53305323, 7.81190491, -0.435925615
0.516015572, -3.29453639, -0.093030182
0.393965612, -3.286922348, -0.060442736
13.53874428, 7.759910708, -0.43534
0.288654322, -3.468870782, -0.031227607
0.142247422, -3.051685791, 0.002079472
0.527685659, -3.35563526, 0.029466182
0.407165879, -3.386050978, 0.061613494
0.255708742, -3.06518261, 0.084841222
0.143501466, -3.054518786, 0.113677499
13.55379972, 7.713393679, -0.43506111
9.880405294, -15.49265996, -0.660939803
5.240880511, -6.521931098, -0.233412055
5.304626124, -7.112143016, -0.16199602
19.19073384, -0.888910209, -0.870028523
13.5599939, 7.6619397, -0.434503389
0.527224585, -3.29984728, -0.093225394
0.403803824, -3.283713617, -0.060406228
0.299295307, -3.467968847, -0.031227607
0.151758068, -3.054231346, 0.002081514
0.539561829, -3.363873995, 0.029552923
0.414369464, -3.358985545, 0.061143847
0.266920725, -3.085297593, 0.085420244
0.152272416, -3.042087278, 0.113231708
13.56774474, 7.611498743, -0.434001428
7.67331602, 0.203475006, -0.21414232
6.744483153, -4.024473703, -0.219106165
6.760765865, -5.109748621, -0.304822405
6.749796206, -4.725517348, -0.373147276
13.52204242, 7.531412077, -0.431798381
0.539274724, -3.310053582, -0.09356003
0.413500974, -3.279483233, -0.060351459
0.308597961, -3.452094439, -0.031093042
0.16112761, -3.053751349, 0.002081514
0.552300466, -3.377005757, 0.029683037
0.423920007, -3.351746971, 0.061035471
0.275492881, -3.074507782, 0.08514452
0.16171074, -3.043601804, 0.113306005
13.54595956, 7.490375721, -0.431826246
13.54258854, 7.434350679, -0.430989665
0.550082389, -3.312327899, -0.09367158
0.423944699, -3.281173944, -0.060406228
0.319463637, -3.454118566, -0.031119954
0.170830149, -3.059233465, 0.002085598
0.564631454, -3.387131501, 0.029787125
0.43548602, -3.360346036, 0.061216103
13.5425118, 7.380330932, -0.430264604
0.285385405, -3.07862483, 0.085282386
0.17099153, -3.042093638, 0.113268857
6.753804515, -5.79296122, -0.402961043
6.72306037, -6.20533511, -0.329085966
6.804802892, -5.02606503, -0.236005527
13.56157367, 7.336845674, -0.430153054
21.91722457, 1.079815834, -0.789303055
19.22929894, -0.831583483, -0.871657219
7.652672333, 0.226424181, -0.213584584
13.56112271, 7.282908341, -0.429427994
0.557239683, -3.292883914, -0.093169619
0.434009222, -3.279857928, -0.060406228
0.337480568, -3.5307653, -0.031819683
0.181214836, -3.07566541, 0.00209717
0.592602517, -3.488896726, 0.030697914
0.445267203, -3.355029532, 0.061143847
0.295591701, -3.085695381, 0.085502968
0.179850606, -3.033574275, 0.112971661
13.53753303, 7.216816615, -0.427977872
6.768091172, -4.066769789, -0.220277411
6.760170156, -5.1419611, -0.305505355
6.728733905, -4.741600133, -0.372785356
13.54635713, 7.168236925, -0.427559597
0.19157818, -3.090066246, 0.00210738
0.608417745, -3.516621977, 0.03095814
0.304466859, -3.078805307, 0.085337528
0.190089672, -3.047968584, 0.113528904
13.54527666, 7.114558123, -0.426834536
13.45688983, 5.288163784, -0.520067265
13.58831346, 7.084059028, -0.427503807
13.4609442, 5.242139549, -0.519599964
0.579680761, -3.302201916, -0.093532142
0.449185236, -3.241479944, -0.059749039
0.201057465, -3.089463856, 0.00210738
0.631174834, -3.582689901, 0.031556657
0.313911055, -3.077856836, 0.085337528
0.199439809, -3.047371111, 0.113528904
19.23475578, -0.772705191, -0.871792939
13.61442189, 7.044634194, -0.427643252
13.45831654, 5.193621493, -0.518881072
13.6172972, 6.993242828, -0.427057636
13.46018581, 5.146953125, -0.51834183
0.21053486, -3.088832596, 0.00210738
0.627159606, -3.497074456, 0.030819354
0.208993037, -3.049735966, 0.11364035
13.74556001, 7.005903733, -0.43040402
13.47404408, 5.104925833, -0.518269947
6.811173953, -4.121150609, -0.222090048
6.756266325, -5.171788812, -0.306044569
6.728007469, -4.772046075, -0.373554435
9.952727005, -15.50095781, -0.662593295
5.262122138, -6.507376336, -0.23346783
5.3426269, -7.117424984, -0.162488905
0.221715777, -3.112111359, 0.002123716
0.639142276, -3.502019883, 0.030880073
0.218990922, -3.058051249, 0.113974695
13.84726805, 7.004307371, -0.432913852
13.47093018, 5.056539945, -0.517551055
4.133080289, -11.90908588, -0.230160681
4.579541849, -14.02373957, -0.269354431
13.88745297, 6.971208926, -0.433499468
13.47888595, 5.012401261, -0.517263462
5.25866565, -6.493274332, -0.152558116
5.499388305, -6.310789845, -0.233523605
0.651161143, -3.506924737, 0.030940792
0.228297419, -3.056368425, 0.113937546
13.94098582, 6.944615647, -0.434503389
13.47075645, 4.962388912, -0.516364803
19.22206179, -0.713134588, -0.871114281
13.95326493, 6.897383101, -0.434224528
13.48779575, 4.921723062, -0.516436687
6.826668626, -4.159190942, -0.223010299
0.487136797, -3.223860212, -0.05952998
0.662102735, -3.505893164, 0.030949464
0.237750649, -3.056649909, 0.113974695
14.00218167, 6.868188979, -0.435089005
13.48309451, 4.873186541, -0.515681853
6.667554076, -6.890474142, -0.267489654
6.75778477, -5.205909399, -0.306835373
6.758865973, -4.825169297, -0.376087931
21.94339626, 1.013630301, -0.790129831
14.03127564, 6.82913591, -0.435339999
13.49327763, 4.83011363, -0.515502145
0.271292202, -3.370097444, 0.002301374
0.671346926, -3.495989039, 0.030880073
0.542727473, -3.509705721, 0.064160401
0.246643898, -3.04992973, 0.113751796
14.05216165, 6.786056101, -0.43534
13.51933599, 4.792701246, -0.515933445
5.386520011, -6.360120021, -0.299789955
7.694699085, 0.1427414, -0.276820441
0.684176842, -3.504708699, 0.030975489
0.537130836, -3.404324196, 0.062263766
14.07561909, 6.74420857, -0.435423655
13.53963358, 4.753188387, -0.516149153
0.25817353, -3.075049613, 0.114717689
19.25111535, -0.655076087, -0.872335818
14.08811817, 6.69713122, -0.43517266
13.55698374, 4.71261122, -0.516256978
7.08994196, -4.349473249, -0.232045618
6.755208306, -5.23702677, -0.307446441
6.75944456, -4.856958211, -0.376947519
0.696871908, -3.512401683, 0.031062229
0.547254903, -3.400685856, 0.062227638
0.2661332, -3.057318739, 0.114086141
14.09955804, 6.649613885, -0.434893799
13.59405722, 4.67880227, -0.517119696
5.101721882, -6.576856054, -0.299394538
14.10812195, 6.600818748, -0.434531284
13.63010397, 4.644487851, -0.517946472
0.708434996, -3.514168252, 0.031096926
0.559789964, -3.411817272, 0.062462458
14.11107859, 6.549508417, -0.434001428
13.64618307, 4.603288359, -0.518018355
5.280799748, -6.489651223, -0.233412055
4.947384293, -6.548939468, -0.149856356
6.728971045, -5.73592232, -0.400427576
6.729547233, -6.17319568, -0.328474899
6.77183725, -4.969679453, -0.23433232
19.25802601, -0.596165944, -0.872562018
0.544921923, -3.26630511, -0.06046099
0.720817927, -3.519815274, 0.031166321
14.12838167, 6.504931617, -0.433917773
13.69910586, 4.574378365, -0.51949214
0.570584442, -3.412056259, 0.062498586
14.15281856, 6.463631762, -0.434057188
13.75577411, 4.546441089, -0.52110969
7.07656464, -4.37120437, -0.232045618
6.752504209, -5.268176954, -0.308057537
0.742201503, -3.568495849, 0.031617379
0.586591635, -3.44281541, 0.06309467
14.16438786, 6.416468825, -0.433806223
13.79910274, 4.513849372, -0.522224
7.607930036, 0.047752869, -0.273657193
6.782557228, -4.905187392, -0.379073855
14.18218307, 6.372163677, -0.433750433
13.84521268, 4.481957615, -0.523446193
0.739095546, -3.499672018, 0.031027535
0.597493214, -3.44296992, 0.063130798
19.25177546, -0.536857566, -0.872200098
14.18340472, 6.320485774, -0.433192712
13.89030449, 4.449520787, -0.524632385
0.750667406, -3.50129892, 0.031062229
0.610314961, -3.453920221, 0.063365618
14.17529976, 6.264819702, -0.432356102
13.90674735, 4.407790834, -0.524740269
22.01329724, 0.949188507, -0.792538216
14.16515618, 6.208460403, -0.431463731
13.93546249, 4.369888885, -0.525315394
7.032562701, -4.373888969, -0.231041682
6.745741915, -5.296274335, -0.308488895
0.764595078, -3.513636011, 0.031192342
0.64391829, -3.579957277, 0.065713832
14.18046938, 6.163379345, -0.431352181
13.9965276, 4.341919869, -0.527112712
6.723628348, -4.684843856, -0.228615535
6.777975861, -4.933615304, -0.379661974
6.751043296, -5.894448257, -0.322364052
6.769944732, -5.489778279, -0.394727197
19.23735333, -0.477394911, -0.871476259
14.19104982, 6.116284216, -0.431101215
14.03653312, 4.307166838, -0.528119196
0.875484802, -3.976173154, -0.113582713
0.367462796, -3.391148322, 0.002321794
0.794130109, -3.596223801, 0.031946996
0.625195787, -3.415687962, 0.062733406
14.20515158, 6.070753671, -0.43096177
14.0745449, 4.271629343, -0.529053797
5.298784924, -6.471098943, -0.233328399
4.968663135, -6.535322344, -0.149892864
0.884846209, -3.96078652, -0.11322019
0.78198624, -3.490338553, 0.031027535
0.633841666, -3.403924241, 0.062552774
14.21910777, 6.025194591, -0.430822325
14.10098424, 4.232451132, -0.529557039
7.014027449, -4.392260827, -0.230874372
14.24029029, 5.982704033, -0.43090598
14.20300076, 4.215615527, -0.532900025
6.734950497, -5.321281736, -0.308740516
0.799117384, -3.516200974, 0.031279085
0.64390973, -3.399998965, 0.062516647
14.25581024, 5.93783413, -0.430822325
14.26573011, 4.186655309, -0.534769168
19.2457197, -0.418525328, -0.871792939
6.778119189, -4.965604105, -0.380521562
0.396204172, -3.366766516, 0.0023075
0.830339614, -3.602404224, 0.032068433
14.28135175, 5.89712231, -0.431045425
14.29194463, 4.14676734, -0.53527241
0.653770517, -3.395062035, 0.062462458
22.07302202, 0.883927508, -0.794587126
14.33360508, 5.867291022, -0.432077241
14.31228491, 4.105104974, -0.535560002
0.403653295, -3.341708373, 0.002291163
0.830008417, -3.551153862, 0.031634727
0.664183387, -3.393040443, 0.062462459
0.541563341, -3.424118778, 0.095622145
14.33486579, 5.816523305, -0.431575281
14.32769605, 4.061993887, -0.535667827
4.618158596, -13.99633047, -0.269098875
19.23192982, -0.359198517, -0.87111428
14.36191707, 5.776247485, -0.431854141
14.35933628, 4.023410753, -0.536386778
0.418453359, -3.377173473, 0.002316349
0.854503058, -3.605998758, 0.0321465
0.678491574, -3.41059917, 0.062823722
0.550473925, -3.412572486, 0.095346422
14.38699937, 5.735119612, -0.432077241
14.5883131, 4.039340024, -0.544474651
6.972615222, -4.396165718, -0.229954106
6.731109135, -5.351870435, -0.309315642
6.767677385, -4.989932407, -0.380793002
6.751872908, -5.719771215, -0.400744256
6.721130159, -6.127608967, -0.327144881
6.776552412, -4.941224022, -0.23396979
14.4054559, 5.691321017, -0.432105136
14.63823035, 4.004849864, -0.545876493
0.425410132, -3.349089025, 0.00229797
0.846643965, -3.524603592, 0.031443892
0.686376802, -3.395761297, 0.062588902
0.559967668, -3.404949573, 0.095180989
14.42564179, 5.648192421, -0.432188791
19.19997957, -0.299679598, -0.869621363
5.475093917, -6.505065549, -0.305828889
0.438780274, -3.371567405, 0.002314306
0.880161076, -3.615261468, 0.032276614
0.698199257, -3.400495395, 0.062715346
0.569750303, -3.399272118, 0.095070698
14.43078765, 5.599207828, -0.431826246
5.193245191, -6.527832059, -0.300041576
14.45069676, 5.555984886, -0.431909931
0.754550597, -3.61856353, 0.066779556
0.580176425, -3.397508027, 0.095070698
6.741536714, -5.535651945, -0.395043906
14.44058455, 5.501304534, -0.431101215
5.015392643, -12.04117153, -0.363894147
6.821533552, -4.330214715, -0.225408566
6.741969292, -5.394348038, -0.310573747
6.774799111, -5.027340706, -0.38205975
14.46113525, 5.458387305, -0.431212736
0.715530501, -3.379518589, 0.06240827
0.592309982, -3.405560543, 0.095346422
14.50122043, 5.422748539, -0.431909931
19.18782329, -0.240610642, -0.869033244
8.117928417, -12.3909908, -0.532828083
5.31607052, -6.451726165, -0.233216849
5.238397876, -6.846407655, -0.157395733
14.55997033, 5.393860373, -0.433164818
0.728626618, -3.390015119, 0.06264309
14.57832678, 5.349854573, -0.433220607
22.0916086, 0.816795039, -0.79516231
6.763575077, -4.322592147, -0.223930565
0.742220074, -3.402416802, 0.062914038
14.59561071, 5.305444907, -0.433248473
5.239346968, -6.510155737, -0.15257637
5.472148169, -6.318564822, -0.233188969
6.740177677, -5.426914985, -0.311256727
6.786556826, -5.068425783, -0.383597937
6.759673626, -5.975473797, -0.324520817
14.61746217, 5.262673176, -0.433415813
6.73150469, -4.751953121, -0.229870451
0.795873815, -3.595364717, 0.066526675
7.641824429, -0.07237894, -0.346093204
14.67214232, 5.23156727, -0.434559149
0.503563867, -3.381712401, 0.002327239
0.769217395, -3.425113585, 0.063419806
14.71451569, 5.195848439, -0.43534
14.75397596, 5.158928922, -0.436037165
0.512884198, -3.373231188, 0.002322475
0.820362455, -3.601137251, 0.066725368
4.980716155, -12.06204576, -0.364061457
7.704094012, 0.119272945, -0.277143945
14.79712732, 5.123124243, -0.436845881
7.649003378, -0.048978589, -0.346409884
6.780544646, -4.362794243, -0.224934486
6.73980241, -5.460779341, -0.31201159
6.770975257, -5.089222763, -0.383597937
5.120373126, -6.51792373, -0.298136433
6.569106068, -6.705903806, -0.261884433
0.523690744, -3.374606403, 0.002324516
0.833207312, -3.606396895, 0.066869872
14.8071017, 5.075758629, -0.436678541
14.84532237, 5.038016529, -0.437347841
0.844723781, -3.605770643, 0.066906
6.741113055, -5.675224888, -0.399070349
6.738416602, -6.105617586, -0.327072998
14.91851086, 5.011866788, -0.439048928
6.72125352, -4.869388678, -0.231543643
8.081625878, -12.25340411, -0.527975371
5.337753452, -6.437695051, -0.233300519
14.9954715, 4.986576283, -0.440861565
0.857861521, -3.611917092, 0.067068571
