x	y	z
2.440752335, -2.43283657, 0.639577607
2.624368446, -2.429591006, 0.627645488
2.824116625, -2.427832095, 0.616945492
3.059142268, -2.442600115, 0.610571349
2.399855013, -2.3918212, 0.500511804
2.582747239, -2.392649887, 0.485344256
2.799015405, -2.408803003, 0.473190445
3.006595065, -2.40322258, 0.456381115
2.392887833, -2.384877605, 0.373694491
2.574341443, -2.386366154, 0.353279685
2.79575541, -2.407781575, 0.336695269
3.013291244, -2.410989083, 0.315582089
2.402738213, -2.396785506, 0.250355021
2.588286241, -2.399964604, 0.226525839
2.795533616, -2.40929065, 0.201807661
3.002626624, -2.405035845, 0.173887139
2.387045726, -2.382628413, 0.125379589
2.584771773, -2.399224082, 0.097276509
2.795214104, -2.411056552, 0.06668924
3.01391141, -2.414592904, 0.033499675
2.413290049, -2.410590649, 0.002321794
2.591742866, -2.406705403, -0.031729974
2.794278423, -2.412121461, -0.067397942
2.985646117, -2.394943982, -0.106778351
2.366196353, -2.36553048, -0.120347326
2.547857304, -2.368107143, -0.157528949
2.764503554, -2.388608794, -0.200871418
2.981369012, -2.393138428, -0.246756193
2.377909586, -2.379731159, -0.244038025
2.581659975, -2.401793607, -0.289590738
2.820546172, -2.439869937, -0.341436873
3.059140653, -2.457321839, -0.397949683
2.42596752, -2.431133408, -0.375895273
2.632606374, -2.452020814, -0.427910156
2.828728915, -2.448415945, -0.481181327
3.082051454, -2.477318898, -0.547643427
2.442004233, -2.449682779, -0.507627617
0.811849623, -2.430913443, -0.022992344
0.993812977, -2.381889048, 0.022388052
0.899568863, -2.397364554, 0.046259792
0.820320596, -2.454567094, 0.071385742
0.742923538, -2.524120731, 0.097814661
1.00078129, -2.397883293, 0.117444937
0.908858203, -2.419039692, 0.141309037
0.8211813, -2.452869419, 0.16600367
1.001260056, -2.395501013, 0.212316969
0.809596061, -2.417143254, 0.256548351
0.999930606, -2.389038559, 0.307079945
0.834216596, -2.488054838, 0.361754918
2.429357069, -2.439445265, 1.052297744
2.662347314, -2.478141168, 1.068832981
2.878550088, -2.483095451, 1.076376434
3.127367926, -2.499738519, 1.092418062
2.445466978, -2.453994183, 0.914052906
2.638354962, -2.455808767, 0.91192704
2.858351547, -2.469415679, 0.916832504
3.084706132, -2.471290864, 0.91906119
2.437613912, -2.444662422, 0.774020353
2.610713049, -2.431185043, 0.762509456
2.819034292, -2.437253325, 0.758716574
3.056923384, -2.452450943, 0.759452422
2.427028917, -2.434047009, 0.63793532
2.599605025, -2.421518843, 0.623496886
2.810685695, -2.431321565, 0.615638064
3.039310438, -2.442072129, 0.608105625
2.382027508, -2.388665394, 0.498319784
2.571771309, -2.397185154, 0.484661426
2.778115408, -2.40569135, 0.47090267
3.00539822, -2.417414588, 0.457323077
2.377839654, -2.384465678, 0.372485141
2.5604597, -2.388145132, 0.352378464
2.782334733, -2.411130029, 0.335968272
2.998117138, -2.413971869, 0.314767056
2.389742388, -2.398493833, 0.249766455
2.569235852, -2.397001664, 0.22550113
2.776058983, -2.40738902, 0.200934022
2.982789425, -2.40420588, 0.173164685
2.379724545, -2.389940452, 0.125379589
2.560596082, -2.391449935, 0.096642338
2.77572261, -2.409135038, 0.066400232
2.997926185, -2.416924523, 0.033404259
2.403061699, -2.415147655, 0.002319071
2.569733861, -2.40099186, -0.031550556
2.776297203, -2.4115035, -0.067142365
2.971283926, -2.398441769, -0.10652737
2.345540929, -2.359313222, -0.119664361
2.535472626, -2.371136404, -0.157212269
2.757915873, -2.397733934, -0.200926313
2.950723894, -2.383462143, -0.2448239
2.358649631, -2.3749848, -0.242808083
2.563365041, -2.399486325, -0.288362971
2.795020065, -2.432820426, -0.339248758
3.031470252, -2.450434565, -0.395326274
2.41009749, -2.430095042, -0.374589722
2.618550284, -2.453974764, -0.426847166
2.822699816, -2.458385753, -0.481436493
3.068275416, -2.481779379, -0.546545927
2.43029897, -2.45294597, -0.506756376
1.00799161, -2.404761677, 0.40668797
0.921130343, -2.442505987, 0.432433859
0.8324438, -2.48003855, 0.459109421
1.007141768, -2.397685379, 0.503955264
0.908282537, -2.406529931, 0.52369999
0.82372814, -2.452937216, 0.553070178
1.020486011, -2.424829925, 0.61172605
0.910568048, -2.409911275, 0.625295337
0.816538426, -2.429700479, 0.648503239
1.033328134, -2.447693691, 0.724944458
0.919370493, -2.42769587, 0.735019861
2.413115983, -2.438051104, 1.048497829
2.646328878, -2.478427369, 1.065449704
2.838220208, -2.463533349, 1.064116954
3.104649468, -2.497228263, 1.087153421
2.429081421, -2.45255429, 0.910736503
2.610995721, -2.445336055, 0.905059391
2.830959976, -2.460959329, 0.910463985
3.066493981, -2.472184357, 0.915890403
2.422546989, -2.444505586, 0.771613818
2.600387495, -2.4365086, 0.761673381
2.806368593, -2.441388484, 0.757320038
3.036399134, -2.451334133, 0.756218274
2.413321257, -2.435196207, 0.636293034
2.584258718, -2.422073857, 0.621595439
2.790562692, -2.428922056, 0.612859771
3.0187425, -2.440824047, 0.605485822
2.372598799, -2.393854042, 0.497881333
2.559346814, -2.400320193, 0.483705487
2.763243455, -2.407687059, 0.469631661
2.961689335, -2.397259225, 0.451789024
2.357918958, -2.379042702, 0.370506178
2.550944196, -2.393946706, 0.352078056
2.764416163, -2.410491851, 0.33469601
2.982178566, -2.416256733, 0.313870512
2.376057094, -2.399436405, 0.249104337
2.553138825, -2.396676601, 0.224732603
2.758879479, -2.407360138, 0.200224205
2.960658071, -2.401389102, 0.172306766
2.369569558, -2.394388896, 0.125230995
2.553247101, -2.399294596, 0.096642338
2.750244536, -2.40185504, 0.06596672
2.981954934, -2.419180734, 0.033308843
2.382984076, -2.409709968, 0.002306819
2.557984086, -2.40475475, -0.031496733
2.75759345, -2.410140213, -0.066868541
2.952273194, -2.398092605, -0.106109065
2.343208489, -2.37147427, -0.119915982
2.520910787, -2.372058292, -0.156759855
2.735516386, -2.393035294, -0.199828351
2.915520111, -2.369843546, -0.242505129
2.327530294, -2.358075326, -0.240348169
2.553814897, -2.405289337, -0.2881174
2.77855326, -2.433510662, -0.338154685
3.009273836, -2.447795133, -0.39340918
2.395652519, -2.430398066, -0.37350173
2.595114877, -2.44700948, -0.424248761
2.789782684, -2.444808595, -0.477099213
3.051428203, -2.483677503, -0.544899707
2.410960767, -2.448405996, -0.504287969
0.823990449, -2.451874758, 0.760109172
1.158270656, -2.389060663, 0.145185752
1.271673214, -2.399022415, 0.122727935
0.948516855, -2.386650574, 0.09547424
1.049692825, -2.38525193, 0.071882047
1.15358, -2.381926924, 0.047813224
1.269862841, -2.396213391, 0.02352437
0.950879219, -2.395152205, 0.001754108
1.04995269, -2.38719842, -0.023396034
1.153967754, -2.385061589, -0.048376096
1.260005074, -2.381126616, -0.075154779
0.941158361, -2.373564987, -0.091842127
0.731608973, -2.486835507, -0.478427555
1.015804383, -2.425326146, -0.463502963
2.428426732, -2.468622443, 1.058436186
2.594722456, -2.44508126, 1.047687518
2.815430382, -2.458937907, 1.058395979
3.073727374, -2.487925835, 1.078993188
2.414762488, -2.45310425, 0.908185423
2.596425778, -2.4466865, 0.902606661
2.812424785, -2.460035998, 0.906925913
3.052087351, -2.476057749, 0.913852102
2.4033955, -2.440108258, 0.767894667
2.585073084, -2.437095963, 0.759374132
2.78706827, -2.439660172, 0.75412797
3.01743451, -2.451352822, 0.753364584
2.396179449, -2.432782023, 0.633738378
2.567500091, -2.421206215, 0.619348284
2.77790276, -2.432921906, 0.611715779
3.002809313, -2.443214391, 0.603790607
2.361078004, -2.396893379, 0.497004548
2.535399382, -2.392523499, 0.480564559
2.749876982, -2.410922032, 0.468614865
2.955860764, -2.407588472, 0.452024522
2.345726395, -2.38130877, 0.369736563
2.537800262, -2.39629671, 0.351276969
2.751767709, -2.414364276, 0.33405988
2.955440008, -2.409649235, 0.311832898
2.363787807, -2.401739438, 0.248589353
2.542146414, -2.401071996, 0.224412377
2.730471518, -2.397366531, 0.19869536
2.941668019, -2.400985776, 0.171629449
2.349598929, -2.388823559, 0.124562305
2.539337147, -2.400935627, 0.096394182
2.734601103, -2.403021469, 0.06576802
2.964448886, -2.420096969, 0.033196078
2.369972268, -2.411304007, 0.002301374
2.535338896, -2.398161226, -0.031308342
2.734419459, -2.404723308, -0.066485186
2.934066785, -2.398281971, -0.105718655
2.335221521, -2.377939064, -0.11988004
2.515072511, -2.381154621, -0.156850335
2.719167832, -2.393499821, -0.199169571
2.893559435, -2.366772752, -0.241281327
2.318887908, -2.363781093, -0.24020345
2.51748708, -2.38569148, -0.284843348
2.754637642, -2.427538747, -0.336148928
2.986352526, -2.444412718, -0.391391176
2.386097789, -2.435606114, -0.373175334
2.577510066, -2.445391452, -0.422595239
2.774085908, -2.4461402, -0.475695971
3.018505747, -2.472314955, -0.540372614
2.395825431, -2.448012881, -0.502690743
0.912114479, -2.424649392, -0.430114795
0.809228332, -2.415096078, -0.398176579
0.702559308, -2.381948976, -0.364458036
0.99555823, -2.376288192, -0.356818771
0.892445289, -2.368599237, -0.325550052
0.793863832, -2.36471955, -0.296690678
0.712151576, -2.409974458, -0.275040012
0.993371296, -2.368979741, -0.260523844
0.893240797, -2.368580528, -0.231757682
0.797508372, -2.371048767, -0.205447353
0.725521212, -2.44908294, -0.185289481
0.984091441, -2.344553892, -0.164117675
0.894168589, -2.366910835, -0.139111276
0.80655347, -2.394205919, -0.114414339
0.733360722, -2.470795132, -0.09270483
2.414156164, -2.469223146, 1.055513174
2.55587814, -2.42332465, 1.035000309
2.803536593, -2.463753026, 1.056761381
3.043639848, -2.479066533, 1.07109617
2.398434648, -2.451516325, 0.904868964
2.576244211, -2.442634134, 0.898191744
2.798298984, -2.462874387, 0.904803035
3.036931249, -2.479250127, 0.911587303
2.388389406, -2.439800078, 0.765488187
2.569070172, -2.436939453, 0.756865852
2.774423013, -2.443665543, 0.752731433
2.999258691, -2.451899535, 0.750701209
2.377699889, -2.428880387, 0.630818765
2.543626388, -2.41347904, 0.615372594
2.764504305, -2.436214804, 0.610408351
2.986890086, -2.445530271, 0.602095451
2.337796039, -2.387867354, 0.493643444
2.525173714, -2.397562318, 0.480018341
2.732054083, -2.410160607, 0.466835487
2.933099843, -2.404055514, 0.449669602
2.33284698, -2.38281242, 0.368857037
2.527551279, -2.401330121, 0.350876426
2.718218145, -2.399727062, 0.330879227
2.943410345, -2.414912055, 0.311343901
2.342460794, -2.394721547, 0.247117982
2.528257525, -2.402672664, 0.22383597
2.71562062, -2.399121213, 0.198149352
2.933516141, -2.409365486, 0.171584298
2.334575032, -2.388160173, 0.124153656
2.52326815, -2.400446876, 0.096063309
2.720474598, -2.405439332, 0.065605456
2.948510816, -2.422198087, 0.033100663
2.354177917, -2.409979615, 0.002293205
2.521450413, -2.399723783, -0.031227607
2.713551081, -2.401174631, -0.066156594
2.905850753, -2.390127336, -0.104965714
2.476652509, -2.359231506, -0.154904974
2.701347383, -2.392562429, -0.198401013
2.876268082, -2.367394527, -0.240443972
2.304662498, -2.363742939, -0.239479968
2.504385587, -2.387901553, -0.284188531
2.743451769, -2.432674968, -0.335693072
2.968087904, -2.444707845, -0.389978575
2.36405138, -2.427958449, -0.370890599
2.571432138, -2.454658916, -0.422831452
2.756181473, -2.445423761, -0.473910037
2.986446261, -2.461404137, -0.535982673
2.380715158, -2.447550186, -0.501093517
0.993890868, -2.3657018, -0.071585273
0.91342607, -2.414571299, -0.047134744
0.82282009, -2.438833759, -0.023091024
1.004994652, -2.388045482, 0.022474794
0.906919646, -2.39459336, 0.046259792
0.814097745, -2.411313526, 0.070200116
0.750378877, -2.520871911, 0.097777512
1.010071077, -2.399405214, 0.117670705
0.912380922, -2.405969971, 0.140708416
0.824546423, -2.438048918, 0.165171097
1.010927732, -2.397928261, 0.212805995
0.899137376, -2.368552353, 0.231188329
0.81987801, -2.42313036, 0.257449572
2.409235171, -2.479361557, 1.05668238
2.56856349, -2.450359912, 1.043176517
2.77289935, -2.451946742, 1.048043604
2.983790397, -2.44558422, 1.052669869
2.387532012, -2.455396802, 0.903593424
2.567335126, -2.449188271, 0.897701198
2.777634633, -2.459850965, 0.900557395
3.013505707, -2.475571915, 0.906831153
2.381573472, -2.447815363, 0.765706937
2.550262793, -2.43400703, 0.753521552
2.744912588, -2.432668148, 0.746746293
2.972009973, -2.44487352, 0.745754858
2.362695056, -2.42841178, 0.628811519
2.531935458, -2.417190711, 0.614335415
2.74594466, -2.434866847, 0.607956931
2.969459649, -2.446514754, 0.600092078
2.317351047, -2.381557193, 0.49086688
2.505629043, -2.393665214, 0.477696742
2.709069047, -2.404703496, 0.464166392
2.922646221, -2.410515564, 0.449198636
2.319287147, -2.38354698, 0.36786754
2.515137518, -2.404260458, 0.350175475
2.684784322, -2.384907186, 0.327698574
2.926764557, -2.416316484, 0.310365848
2.333712537, -2.400466733, 0.246970848
2.51366156, -2.403521371, 0.223195519
2.70078461, -2.400807445, 0.197603329
2.915330076, -2.409444356, 0.170952146
2.315399112, -2.383126863, 0.123522115
2.507948333, -2.400573501, 0.095760011
2.705611957, -2.407128335, 0.065424824
2.924109977, -2.417215971, 0.032909831
2.340504083, -2.410733345, 0.002287079
2.507576072, -2.401223887, -0.031146869
2.696464124, -2.400845064, -0.065919278
2.878482908, -2.382459738, -0.104240653
2.300407837, -2.371421024, -0.1188376
2.470124152, -2.367509854, -0.154950228
2.874371311, -2.380663396, -0.240894851
2.291152862, -2.364356187, -0.238828802
2.501362834, -2.399713467, -0.284679643
2.725572396, -2.431798487, -0.334416668
2.954445633, -2.448723197, -0.389171379
2.355208859, -2.433771229, -0.370673012
2.550998135, -2.450154861, -0.420705474
2.742747008, -2.44858398, -0.472889516
2.978880826, -2.470554755, -0.535982673
2.369068882, -2.450574417, -0.500222277
1.008800249, -2.389618816, 0.307550939
0.906634119, -2.385664998, 0.327026326
0.853922252, -2.52113819, 0.366944307
1.012671236, -2.395287388, 0.405609215
0.919845692, -2.416617944, 0.428348138
0.845425361, -2.493330321, 0.462048019
1.02138646, -2.410855509, 0.507379669
0.917754364, -2.409226346, 0.52489703
0.832192252, -2.453176739, 0.55369722
1.030584534, -2.427963918, 0.613311416
0.916572171, -2.403474373, 0.624351855
2.388330342, -2.472983301, 1.050836238
2.553419939, -2.450920435, 1.040075169
2.749549438, -2.446371708, 1.042050004
2.974784995, -2.453499154, 1.05214344
2.376627953, -2.459233665, 0.902317884
2.55351441, -2.451011228, 0.895493739
2.764270494, -2.463188983, 0.898670373
2.999890727, -2.479841063, 0.905019349
2.369304437, -2.450200188, 0.764175515
2.523033556, -2.422853939, 0.747668913
2.730122689, -2.434556282, 0.744751264
2.953151328, -2.444589901, 0.742901225
2.348399059, -2.428580983, 0.626986782
2.521666271, -2.42221798, 0.613644
2.725210962, -2.431457496, 0.605015203
2.952051741, -2.447415489, 0.598088649
2.301781017, -2.380122026, 0.489113251
2.488989079, -2.392416719, 0.475921446
2.679485157, -2.393181466, 0.460353422
2.899189854, -2.406152543, 0.446725968
2.301599121, -2.37993403, 0.366218399
2.499861367, -2.404378662, 0.349073982
2.672257518, -2.388487249, 0.327062415
2.910138211, -2.417641703, 0.309387797
2.315942307, -2.396857148, 0.245867327
2.499803322, -2.404994759, 0.222619126
2.677033038, -2.394437256, 0.196402087
2.901011531, -2.412628098, 0.170545762
2.305300294, -2.387343776, 0.12337352
2.49121166, -2.399241983, 0.095401571
2.689275032, -2.407415188, 0.065208064
2.902842575, -2.414665186, 0.032753693
2.318515202, -2.402790807, 0.002272785
2.495156855, -2.404048917, -0.031084072
2.683128073, -2.403769175, -0.065773231
2.873464319, -2.393198713, -0.104324316
2.281329963, -2.366236862, -0.118226518
2.466444485, -2.378544102, -0.155176428
2.632348456, -2.360430837, -0.194393465
2.863987686, -2.386915075, -0.24063721
2.265207803, -2.351977838, -0.236875349
2.482515822, -2.396301663, -0.283370011
2.685493724, -2.410877902, -0.330405127
2.943098985, -2.454589808, -0.388666885
2.307763767, -2.399430563, -0.364362757
2.53418648, -2.448998936, -0.419170058
2.736697645, -2.458312613, -0.473144653
2.965963736, -2.47523949, -0.535022383
2.358797588, -2.454977469, -0.499641489
0.824612095, -2.429019988, 0.648993786
1.040076833, -2.442736697, 0.724417971
0.931623469, -2.437446569, 0.738833902
0.830891952, -2.447518283, 0.759545255
1.032971743, -2.351484921, -0.11631446
1.140042367, -2.359009968, -0.144052083
1.243095982, -2.351057767, -0.171653685
0.923372537, -2.332273208, -0.181961352
1.043069136, -2.377512899, -0.213223255
1.143011215, -2.368634458, -0.240783642
1.238971891, -2.345238552, -0.268999445
0.939542661, -2.377843534, -0.279827099
1.030719317, -2.353046132, -0.305548882
2.379407701, -2.478919142, 1.050251636
2.555550549, -2.468073689, 1.044022309
2.746332367, -2.458646308, 1.043684601
2.984318165, -2.476784608, 1.058197724
2.363713776, -2.460934807, 0.900277023
2.536917575, -2.450078543, 0.892305132
2.751635745, -2.467116815, 0.897019322
2.969804222, -2.470346475, 0.898224897
2.355690734, -2.451125919, 0.762206594
2.503633072, -2.419031508, 0.744115582
2.71388876, -2.435067762, 0.742357186
2.935831307, -2.445470179, 0.74042805
2.337530585, -2.432229942, 0.626074355
2.512098555, -2.427889472, 0.61312544
2.706726824, -2.42992114, 0.602563726
2.922526808, -2.43810517, 0.593619551
2.286241762, -2.378613952, 0.487359624
2.472380171, -2.391088839, 0.474146122
2.666966161, -2.396749651, 0.459463733
2.889507533, -2.413126263, 0.44637275
2.294975642, -2.38770062, 0.366328369
2.481748095, -2.401658036, 0.347571944
2.656031508, -2.38868318, 0.325971917
2.88206099, -2.409298991, 0.307187193
2.302360887, -2.397477398, 0.24520518
2.481657666, -2.402241484, 0.221658449
2.663736928, -2.397295289, 0.195965274
2.888999577, -2.417670263, 0.170274844
2.29312154, -2.389358238, 0.12311348
2.46517458, -2.388787401, 0.094684676
2.669989931, -2.404948044, 0.064919049
2.879318191, -2.410081123, 0.032571537
2.300750168, -2.399066437, 0.002262575
2.479153804, -2.403340598, -0.030976422
2.669799746, -2.40663415, -0.065627193
2.860745657, -2.397508678, -0.104129111
2.268528481, -2.367452157, -0.117938948
2.442645695, -2.370099812, -0.15413588
2.619163636, -2.36314454, -0.193954283
2.854357357, -2.393766799, -0.240443972
2.25177427, -2.352431943, -0.236224184
2.469432639, -2.398351575, -0.282715194
2.669955809, -2.411762826, -0.329402249
2.924123304, -2.45401406, -0.387153375
2.296270079, -2.402188116, -0.363709967
2.519541868, -2.449839787, -0.417988962
2.721784684, -2.460046576, -0.471868995
2.933323591, -2.463306152, -0.53049529
2.345104764, -2.455762572, -0.498334657
1.139868002, -2.363912578, -0.337541315
1.251316575, -2.370408419, -0.371223216
0.745965552, -2.507200628, -0.482783464
1.0247734, -2.425826836, -0.464197355
0.919198694, -2.420917464, -0.429951002
0.818534574, -2.418217134, -0.399103283
0.722024722, -2.420551584, -0.370701742
1.00939847, -2.388733764, -0.35915092
0.896887459, -2.358433723, -0.324529531
0.805898704, -2.376378881, -0.298462308
0.713849355, -2.388729353, -0.272864083
0.992108675, -2.345762139, -0.258304048
0.90050333, -2.365828943, -0.231757682
0.809588346, -2.382745604, -0.206675119
0.728738017, -2.432514195, -0.184204215
2.356608606, -2.470292393, 1.043528591
2.553471192, -2.481251531, 1.046277867
2.744495561, -2.472212135, 1.045864102
2.973003158, -2.482836842, 1.056881536
2.351478853, -2.463279228, 0.898491267
2.523131264, -2.451769876, 0.890097673
2.724571973, -2.457971635, 0.890650746
2.953248319, -2.471943991, 0.895507104
2.329288247, -2.438584389, 0.756080907
2.485681985, -2.416476505, 0.740980259
2.696222497, -2.434189462, 0.739564112
2.923048263, -2.450051125, 0.739096363
2.324624821, -2.433701959, 0.624614577
2.491221737, -2.42253841, 0.609841164
2.68827758, -2.428294161, 0.600112304
2.903681716, -2.437530922, 0.591307964
2.274833594, -2.381324755, 0.486482839
2.458643058, -2.392444865, 0.472917045
2.655922111, -2.401594309, 0.45882823
2.869166583, -2.411118713, 0.444371077
2.27802747, -2.384668332, 0.364789168
2.464388041, -2.399543018, 0.346170043
2.6442602, -2.392811337, 0.325426654
2.860927119, -2.40658124, 0.305720144
2.292240601, -2.401643956, 0.244910912
2.464982162, -2.400792143, 0.220825876
2.627503859, -2.37931719, 0.193835809
2.873927172, -2.42008739, 0.169823308
2.282331595, -2.392766561, 0.122927722
2.453539949, -2.392152305, 0.094519243
2.641855533, -2.394327941, 0.064413281
2.855849253, -2.405375652, 0.032389378
2.281650015, -2.393808145, 0.002251003
2.466042107, -2.405349334, -0.030904654
2.653516556, -2.40675301, -0.065408131
2.857197418, -2.409496151, -0.104268541
2.262633058, -2.375848205, -0.118010839
2.414633388, -2.357344945, -0.152823892
2.622990557, -2.381236227, -0.194777751
2.834797493, -2.392215176, -0.239413422
2.240421672, -2.354993496, -0.235790083
2.445668358, -2.3898956, -0.280832611
2.655911441, -2.41391469, -0.328581701
2.911259842, -2.458480102, -0.386447088
2.502076582, -2.447836322, -0.41633544
2.712023084, -2.466383429, -0.471486274
2.906080881, -2.455671209, -0.52692843
2.309634316, -2.433522462, -0.492381346
0.995559272, -2.35163235, -0.164826181
0.90107024, -2.363223422, -0.139056379
0.80359663, -2.361457074, -0.112966631
0.738639166, -2.46087637, -0.09241726
1.003874012, -2.369084256, -0.071780485
0.919759666, -2.408955493, -0.047079982
0.81997614, -2.406009677, -0.022803957
1.014660537, -2.390473872, 0.02252684
0.913904899, -2.390865758, 0.046241728
0.830848881, -2.436241856, 0.07099972
0.754076784, -2.505161349, 0.097257417
1.019770174, -2.401812256, 0.11794163
0.919401088, -2.402226834, 0.140653817
0.837829438, -2.452506361, 0.166323896
2.339148872, -2.467100901, 1.03914407
2.538300521, -2.481695671, 1.043176518
2.734046417, -2.478035988, 1.044774411
2.957986083, -2.485739721, 1.054249273
2.333262466, -2.459258629, 0.894409539
2.507279308, -2.451366239, 0.887154396
2.708383496, -2.458481178, 0.8878203
2.930006064, -2.467816058, 0.890751011
2.314405911, -2.437934739, 0.753674428
2.47546045, -2.421355656, 0.740144184
2.682214117, -2.436520019, 0.737768582
2.886250139, -2.43432232, 0.731676837
2.309701093, -2.432978662, 0.622607332
2.476033401, -2.422593019, 0.607939716
2.666213518, -2.423259439, 0.596843705
2.887886827, -2.439414236, 0.589612806
2.255937669, -2.376096507, 0.483998518
2.444921017, -2.393739397, 0.471687997
2.645606759, -2.40706122, 0.458319831
2.853414607, -2.412856653, 0.443075868
2.266594648, -2.387321198, 0.364129495
2.448485966, -2.39873671, 0.344968413
2.632488508, -2.396889889, 0.32488142
2.846683665, -2.409551635, 0.304986618
2.27113449, -2.394194342, 0.243439541
2.447626497, -2.398564641, 0.219929244
2.617977812, -2.385349745, 0.193672015
2.855818635, -2.419851823, 0.169191157
2.270167429, -2.394681017, 0.122667682
2.443334935, -2.396868355, 0.094408952
2.627848252, -2.396358551, 0.064250717
2.842353488, -2.408953755, 0.032319987
2.277733805, -2.404426694, 0.002254407
2.456510084, -2.410802536, -0.030877743
2.634304006, -2.404098821, -0.065116046
2.823115508, -2.39561374, -0.103292507
2.24846358, -2.375520819, -0.117651378
2.435183668, -2.39204351, -0.154588294
2.623782256, -2.396679798, -0.195381621
2.827445022, -2.400900965, -0.239413422
2.233186334, -2.361855954, -0.235790084
2.446142002, -2.40507361, -0.281732997
2.633060925, -2.407938626, -0.326667111
2.894605887, -2.459669504, -0.38523628
2.233032194, -2.364915632, -0.355985354
2.486062832, -2.447141808, -0.41491813
2.689809197, -2.461300979, -0.468934956
2.886459334, -2.454309011, -0.524733489
2.296726144, -2.43483888, -0.491219711
0.760532026, -2.523733807, 0.194442646
1.018669655, -2.395732676, 0.212887503
0.916019551, -2.390891209, 0.233641983
0.825699301, -2.415896101, 0.256948893
0.761945084, -2.524435257, 0.291677397
1.018849899, -2.39290832, 0.308375152
0.853956741, -2.496011538, 0.363666797
1.021177782, -2.394895987, 0.406071539
0.853389968, -2.491656682, 0.462220873
1.028006584, -2.405904959, 0.506999154
0.923734922, -2.402740648, 0.524098983
0.843835469, -2.462638646, 0.556414536
2.329601275, -2.472177786, 1.038267166
2.509471821, -2.468613601, 1.034436333
2.715055981, -2.476038716, 1.040415522
2.942979342, -2.488573627, 1.051616894
2.315756318, -2.455853182, 0.890582921
2.487306799, -2.446809583, 0.88273948
2.690782681, -2.45760358, 0.884518083
2.909046287, -2.465458078, 0.886674351
2.304906581, -2.442894412, 0.75301812
2.463838251, -2.424823367, 0.738890044
2.661706998, -2.432837632, 0.734177519
2.870534525, -2.436178016, 0.729584177
2.293454148, -2.430756478, 0.620235184
2.467185601, -2.428795992, 0.607594009
2.65585445, -2.428764715, 0.59619002
2.874366563, -2.443143571, 0.588379945
2.245921417, -2.380128493, 0.483414033
2.433331203, -2.397057885, 0.470868612
2.633819964, -2.411147921, 0.457557249
2.839191957, -2.415807628, 0.442016157
2.256531082, -2.39137221, 0.363689731
2.432612082, -2.397855798, 0.343766755
2.619982569, -2.400246029, 0.32424529
2.834725341, -2.414396425, 0.304497593
2.260357874, -2.397522513, 0.243071691
2.426754453, -2.392749922, 0.218712399
2.597399008, -2.381224709, 0.192689179
2.83013709, -2.413046592, 0.168107455
2.258698267, -2.397270511, 0.12244479
2.434547131, -2.402948676, 0.094353803
2.615327115, -2.399677581, 0.064124273
2.829623643, -2.413120478, 0.032259265
2.264176925, -2.404850769, 0.002248281
2.437006025, -2.406383568, -0.030725237
2.615869265, -2.402025658, -0.064842222
2.833997085, -2.419842015, -0.103961785
2.241165097, -2.382407819, -0.117651379
2.41291282, -2.38475637, -0.15363824
2.599508385, -2.38917772, -0.194118971
2.803374525, -2.395302574, -0.237996382
2.215684476, -2.357793897, -0.234704831
2.400491472, -2.374717285, -0.277313015
2.62785943, -2.418028154, -0.326940607
2.875703523, -2.458840172, -0.38372277
2.235289802, -2.381903401, -0.357508521
2.477132309, -2.453360026, -0.414681917
2.677137854, -2.464839023, -0.46804199
2.869884172, -2.455425365, -0.523087268
2.298719135, -2.451978966, -0.493252585
1.041095106, -2.431953908, 0.615123219
0.924290654, -2.401557977, 0.624587711
0.828915731, -2.417308213, 0.646541053
1.048708031, -2.442193842, 0.725207674
0.938404565, -2.432781604, 0.738289057
0.838708105, -2.445865091, 0.759827184
0.947736785, -2.402138655, -0.378978264
1.04357931, -2.386143162, -0.40713477
1.165462133, -2.420229013, -0.446002502
1.289798861, -2.443926452, -0.487112094
0.982464283, -2.495260247, -0.494943825
0.999494166, -2.373497941, -0.116631147
0.901806494, -2.380246161, -0.091554557
2.318737335, -2.475823241, 1.036805661
2.485520936, -2.460102728, 1.027669776
2.690432236, -2.468743988, 1.033877131
2.929452792, -2.492589535, 1.049511063
2.292342614, -2.446014052, 0.884460333
2.466697013, -2.441471403, 0.87807929
2.673928419, -2.457299105, 0.881451783
2.89924531, -2.472475128, 0.885994917
2.27871199, -2.430024468, 0.746892432
2.444574521, -2.420673389, 0.735336711
2.636199348, -2.424409271, 0.729189864
2.858567436, -2.441148111, 0.728442689
2.281950769, -2.433477967, 0.619140308
2.449225956, -2.425956727, 0.605001148
2.639678762, -2.428885289, 0.594228849
2.858597881, -2.444886117, 0.586684788
2.232518192, -2.380513455, 0.482098798
2.418226185, -2.396840896, 0.469366425
2.61692608, -2.410480789, 0.455904949
2.823469299, -2.417402662, 0.440720978
2.244424507, -2.393208865, 0.362920146
2.410408702, -2.390594128, 0.341663903
2.602355005, -2.398823065, 0.322972999
2.825790996, -2.421784625, 0.304334574
2.24276345, -2.393529876, 0.241968171
2.414443116, -2.395264153, 0.218264084
2.582741886, -2.382411883, 0.19214317
2.815138722, -2.415213017, 0.16765592
2.24245312, -2.39470618, 0.121961844
2.41865212, -2.401953725, 0.09402293
2.601340989, -2.40158612, 0.063961702
2.824483505, -2.423744005, 0.03228529
2.244489833, -2.398642596, 0.002236029
2.422518338, -2.406801205, -0.030635528
2.604081249, -2.405968743, -0.064732691
2.784100878, -2.392045413, -0.102400129
2.231797871, -2.387082366, -0.117543539
2.391417846, -2.37805982, -0.152733412
2.560643857, -2.367990893, -0.191758359
2.781635399, -2.391530912, -0.236772594
2.214567463, -2.371140526, -0.235355982
2.386837242, -2.375742838, -0.276576332
2.607275487, -2.413901256, -0.325299542
2.856833695, -2.457918058, -0.382209288
2.241532109, -2.403288867, -0.359684449
2.465373698, -2.456742537, -0.413973248
2.649190398, -2.454167786, -0.464470122
2.851077289, -2.454524646, -0.521029478
2.2979305, -2.466258569, -0.494704557
1.209260596, -2.372565343, -0.074290288
1.100804461, -2.367124448, -0.047664144
1.005052836, -2.383673526, -0.023207646
0.914737027, -2.411326248, 0.001755469
0.747987465, -2.486066511, -0.479153541
1.041475242, -2.444415712, -0.468363661
0.928033629, -2.421770675, -0.430606147
0.827867549, -2.421303748, -0.400029987
0.7285903, -2.415483209, -0.370266121
1.021770847, -2.397472019, -0.360934322
0.911226643, -2.374190386, -0.327080849
0.812541894, -2.372016382, -0.298226094
0.724912678, -2.398898432, -0.274278443
1.006327, -2.359179323, -0.260120259
0.907757364, -2.363055069, -0.231757681
2.299402354, -2.470325135, 1.031544121
2.446009914, -2.435896995, 1.014418706
2.671534641, -2.46654351, 1.029518245
2.915196289, -2.495918251, 1.047142013
2.271647103, -2.438884589, 0.879358175
2.455073486, -2.444923242, 0.876607652
2.653533699, -2.453615498, 0.877206084
2.884993633, -2.475649757, 0.883956559
2.267919697, -2.433434758, 0.745798567
2.437136385, -2.428161827, 0.735336711
2.610049234, -2.415182182, 0.72400277
2.836917306, -2.43774967, 0.724828083
2.265759611, -2.431117135, 0.616768103
2.437585636, -2.429287752, 0.603963968
2.626423291, -2.431610343, 0.592921421
2.836105428, -2.440754456, 0.583602632
2.224529925, -2.386627687, 0.481952647
2.40454838, -2.397952883, 0.468137348
2.596423577, -2.406361819, 0.453617174
2.809268333, -2.420220033, 0.439661266
2.226906316, -2.389177154, 0.361271005
2.396724304, -2.391652583, 0.340762681
2.573078629, -2.386479575, 0.320246742
2.810799981, -2.423933776, 0.30351954
2.227933265, -2.392371152, 0.241158918
2.39154437, -2.387149962, 0.216855104
2.570297379, -2.385569579, 0.191760956
2.797885275, -2.415352128, 0.167068919
2.233053452, -2.399380081, 0.121850398
2.405614609, -2.403710397, 0.093802348
2.582972333, -2.399348329, 0.063690754
2.800383245, -2.41802057, 0.032094458
2.228266981, -2.395997661, 0.00222718
2.402393059, -2.401497069, -0.030474052
2.587168029, -2.405096973, -0.064495375
2.797922394, -2.418880723, -0.103180957
2.202015111, -2.369759299, -0.116357324
2.395409867, -2.396690753, -0.153457266
2.54971205, -2.372434787, -0.191483865
2.775794615, -2.401359325, -0.236901414
2.219496041, -2.391081408, -0.236658284
2.389396236, -2.392927962, -0.277722261
2.564152968, -2.38862877, -0.320832143
2.82069651, -2.441926186, -0.378375071
2.249691309, -2.426921974, -0.3621868
2.443800157, -2.450233088, -0.411611057
2.631491198, -2.452816092, -0.462684188
2.833051806, -2.454180122, -0.519108896
2.293042263, -2.476200924, -0.495285403
0.822394586, -2.396276255, -0.208066605
0.739378208, -2.440767126, -0.185000072
1.011782079, -2.369675783, -0.166307625
0.910109222, -2.365107261, -0.139330874
0.820904162, -2.388267239, -0.114369099
0.748507392, -2.466248982, -0.09270483
1.014280178, -2.373346825, -0.072003578
0.923191433, -2.39585967, -0.046879174
0.837118027, -2.431848153, -0.023073083
1.025924971, -2.396542545, 0.022613581
0.920515981, -2.386185084, 0.046205601
0.831482482, -2.413833752, 0.070420698
1.027134039, -2.398672356, 0.11794163
2.280772351, -2.46543407, 1.026574999
2.427681197, -2.432524279, 1.009907591
2.659725035, -2.470798664, 1.027883645
2.849053071, -2.454476178, 1.026083335
2.266124525, -2.447970975, 0.880123498
2.437973497, -2.44283711, 0.873173828
2.645993839, -2.461744802, 0.877206085
2.864114956, -2.473031003, 0.879879899
2.260443554, -2.440381324, 0.745798569
2.427603527, -2.433550534, 0.734709612
2.598324215, -2.419171819, 0.722805729
2.81902833, -2.437452285, 0.722164651
2.25094101, -2.430122277, 0.614760857
2.425252739, -2.431873034, 0.602753994
2.607400789, -2.42889753, 0.590306565
2.814412495, -2.437154901, 0.580674614
2.213835857, -2.389812765, 0.481221955
2.39228515, -2.400406961, 0.467181408
2.574520199, -2.400786826, 0.451075184
2.791325023, -2.419720961, 0.438012812
2.205381271, -2.380685891, 0.358962219
2.383758535, -2.393354574, 0.339961594
2.556279965, -2.385529636, 0.319065348
2.794317048, -2.424707225, 0.302541488
2.215163739, -2.393339912, 0.240570352
2.376463895, -2.38669715, 0.216150621
2.560777153, -2.391399479, 0.191597147
2.778395095, -2.413442718, 0.166346466
2.220253234, -2.400350937, 0.121553195
2.389064514, -2.401865809, 0.093443908
2.569755505, -2.401799763, 0.06354625
2.780874082, -2.416107039, 0.031955669
2.211403023, -2.392541473, 0.00221765
2.390783894, -2.404601528, -0.030420229
2.56882414, -2.402778009, -0.064221544
2.742974564, -2.3861209, -0.101424095
2.190666406, -2.37209893, -0.116141645
2.357068796, -2.372844131, -0.151466665
2.533674594, -2.372057142, -0.1908251
2.745080686, -2.389552413, -0.234904688
2.175630118, -2.358293715, -0.232751364
2.370108972, -2.388221301, -0.276330791
2.571344227, -2.410104458, -0.322655569
2.81019063, -2.447954611, -0.377971487
2.312957388, -2.510577511, -0.373610537
2.431377872, -2.452782394, -0.41078431
2.611655119, -2.449343433, -0.460515562
2.820282127, -2.458304236, -0.518148605
2.286104567, -2.483952053, -0.495430599
0.921010371, -2.38449175, 0.139780192
0.843071105, -2.443320691, 0.165875579
1.029157394, -2.399924191, 0.21353952
0.911139617, -2.356488711, 0.230552197
0.843496755, -2.443447964, 0.26015324
0.769976439, -2.523036258, 0.291787337
1.028929185, -2.396158583, 0.309199365
0.917674777, -2.370807047, 0.325755346
0.862257471, -2.495252352, 0.363939906
0.768377473, -2.517796802, 0.388864765
1.030862422, -2.397197853, 0.406996185
0.925028212, -2.386092432, 0.423935547
0.870690306, -2.516951646, 0.467406597
0.769569697, -2.522176487, 0.489400011
2.251190785, -2.448484076, 1.01663664
2.421558321, -2.441323315, 1.010471568
2.646508805, -2.47369098, 1.025704144
2.817453678, -2.44235214, 1.017396558
2.248783516, -2.444238353, 0.87629688
2.427736641, -2.44755212, 0.872192736
2.627077656, -2.459225114, 0.873432156
2.845485139, -2.472224166, 0.876482673
2.246336977, -2.440125796, 0.743610839
2.411863936, -2.432653363, 0.732201388
2.593035371, -2.429141928, 0.723404221
2.804130412, -2.439645611, 0.720262248
2.240811149, -2.434123296, 0.614030997
2.411540138, -2.433006143, 0.601198253
2.596337945, -2.433512042, 0.589489387
2.796492875, -2.43669051, 0.578517104
2.195102774, -2.384221023, 0.478737692
2.380029582, -2.402808386, 0.466225469
2.560632523, -2.402565858, 0.449931282
2.768172848, -2.414565301, 0.435540172
2.187968707, -2.376472411, 0.357313078
2.364504998, -2.388635748, 0.338259285
2.543141105, -2.387907543, 0.31833835
2.762089541, -2.411636626, 0.299851887
2.203084436, -2.394986815, 0.240055368
2.362812776, -2.387592883, 0.215574215
2.549790012, -2.395825821, 0.191324143
2.761199569, -2.413408916, 0.165759464
2.211525925, -2.405679928, 0.121478897
2.369034744, -2.396388242, 0.092947596
2.552906208, -2.400767913, 0.06331143
2.761403182, -2.414096917, 0.031816883
2.199993374, -2.394896103, 0.002213566
2.374961197, -2.403389707, -0.030312575
2.540325602, -2.390775925, -0.06369215
2.766480148, -2.421518484, -0.102567454
2.165808905, -2.359666232, -0.115207051
2.329424417, -2.359448395, -0.150154677
2.53728743, -2.390088763, -0.191648567
2.722722966, -2.38481267, -0.233616483
2.185909764, -2.384071008, -0.234632486
2.334075948, -2.366389547, -0.272974871
2.550172809, -2.405000295, -0.320923309
2.791444629, -2.446727932, -0.376457977
2.319341554, -2.533058024, -0.375895273
2.417569218, -2.453864034, -0.409721321
2.59907872, -2.452579395, -0.459622594
2.803790589, -2.459107155, -0.516502384
2.278473305, -2.490954143, -0.4954306
1.038491068, -2.409952645, 0.508521101
0.930393211, -2.398068459, 0.52369999
0.847868628, -2.449872666, 0.554115286
1.048937366, -2.429642802, 0.615349717
0.932005995, -2.399616873, 0.624823568
0.838231669, -2.420250222, 0.648012693
1.057345834, -2.441620772, 0.725997376
0.949354065, -2.438857472, 0.741013403
0.846208015, -2.443280486, 0.759827184
1.225228634, -2.400269512, 0.023376908
1.110156211, -2.384838687, 0.047524216
1.000158873, -2.370679539, 0.070972145
2.241733136, -2.453261207, 1.015759622
2.43291677, -2.467871671, 1.018365845
2.630496431, -2.473888436, 1.022434949
2.809220341, -2.450350326, 1.017133343
2.236054207, -2.445417444, 0.874256016
2.407965431, -2.442561847, 0.867777819
2.60254271, -2.451282341, 0.867771206
2.812221504, -2.458504775, 0.86855585
2.233570769, -2.441246718, 0.741860668
2.400270942, -2.435862022, 0.730947246
2.577013924, -2.429020259, 0.721010198
2.780381534, -2.434010658, 0.71607687
2.2326692, -2.440261098, 0.613848489
2.398534715, -2.434779914, 0.599815425
2.566610096, -2.420483095, 0.58442311
2.780831892, -2.438093616, 0.576821948
2.1784282, -2.380726712, 0.476691793
2.358052286, -2.395273999, 0.463357651
2.542430728, -2.400196889, 0.448024798
2.760005622, -2.422391499, 0.435422423
2.177312448, -2.379507408, 0.356763345
2.348792242, -2.387367606, 0.337057656
2.530735927, -2.390911312, 0.317702219
2.741200138, -2.408258664, 0.298384809
2.193707605, -2.399526298, 0.239834653
2.353377172, -2.392696038, 0.215382079
2.535897579, -2.397463626, 0.190832718
2.736529009, -2.406694843, 0.164720928
2.194698341, -2.402124818, 0.120958802
2.349761519, -2.391523457, 0.092478857
2.534634823, -2.398281004, 0.063040482
2.743472574, -2.41331105, 0.031695446
2.178476684, -2.386125734, 0.002199272
2.36407309, -2.407097463, -0.030267723
2.532252938, -2.397870942, -0.063673896
2.724531357, -2.399603078, -0.101284658
2.145089401, -2.351533495, -0.11448813
2.318676326, -2.363018571, -0.149928477
2.49515711, -2.364892011, -0.189013461
2.722131769, -2.39909299, -0.234196183
2.247778664, -2.466698577, -0.242084572
2.313548974, -2.360016676, -0.271419696
2.544227341, -2.414183622, -0.32110564
2.78168663, -2.4533061, -0.376155274
2.317580626, -2.546778637, -0.376874458
2.402387536, -2.453464908, -0.408422119
2.593699768, -2.462590502, -0.460005286
2.785092591, -2.457866071, -0.514444594
2.297441919, -2.527216705, -0.501238714
2.400627966, -2.454494247, -0.536719768
0.911795904, -2.400919203, 0.09547424
1.222459012, -2.394224501, 0.121508782
0.952743845, -2.418387146, 0.794484824
1.060932669, -2.419926822, 0.776461649
1.180509116, -2.437723578, 0.766894339
1.302861632, -2.451836116, 0.757585335
0.953815733, -2.418755879, 0.685986106
1.056444286, -2.409689232, 0.665672417
0.75131786, -2.469647736, -0.476431041
1.048580921, -2.440304366, -0.468190064
0.932968414, -2.412471418, -0.429459621
0.830131981, -2.403810199, -0.397558748
1.028730232, -2.393415877, -0.360797142
0.918506278, -2.371383655, -0.327080849
2.242554147, -2.469330364, 1.019559652
2.423991046, -2.473953705, 1.017801985
2.610314399, -2.470043238, 1.017531272
2.811115572, -2.467230263, 1.020555365
2.221388188, -2.444394797, 0.87144983
2.399103315, -2.448552912, 0.867287271
2.582313649, -2.447223155, 0.863525566
2.793695564, -2.45747134, 0.865158624
2.218849501, -2.44014636, 0.739454131
2.382522952, -2.432734734, 0.727811924
2.559595644, -2.427474977, 0.718217125
2.783214744, -2.451614088, 0.718740245
2.207312463, -2.427458518, 0.608921686
2.386230029, -2.437200549, 0.598605391
2.550584222, -2.420197146, 0.582461939
2.766670184, -2.440730739, 0.575434949
2.167120646, -2.383007462, 0.475815008
2.340300517, -2.391876209, 0.461309219
2.532178354, -2.405253233, 0.4475164
2.731719307, -2.412442133, 0.432125542
2.168664614, -2.384705427, 0.356543463
2.329631275, -2.382468631, 0.335355348
2.519057997, -2.394547614, 0.317156956
2.720357335, -2.404775292, 0.296917759
2.180970266, -2.400340332, 0.239246116
2.339049495, -2.392768845, 0.214741628
2.516954793, -2.394221259, 0.189959093
2.71267395, -2.400514562, 0.163727542
2.175226459, -2.395530194, 0.120290113
2.334730986, -2.390854179, 0.092175559
2.518575319, -2.397772985, 0.062823722
2.728567844, -2.415088877, 0.031608703
2.164426076, -2.3853923, 0.002192465
2.345501271, -2.402890008, -0.030124187
2.519093441, -2.400110826, -0.06352785
2.694713171, -2.388061005, -0.100448055
2.132494961, -2.352180373, -0.11420056
2.319785538, -2.378703327, -0.150471371
2.4922255, -2.376670417, -0.189342851
2.672200434, -2.369692851, -0.23052479
2.258277409, -2.493543205, -0.244038025
2.316730148, -2.377811145, -0.272647462
2.514480148, -2.400660203, -0.318279337
2.765217255, -2.45390446, -0.374944466
2.385153338, -2.450860931, -0.406768596
2.576092145, -2.460944627, -0.458219353
2.767910077, -2.457848999, -0.512661165
2.216052509, -2.45276372, -0.485121203
2.391020506, -2.459722447, -0.536256403
0.822412771, -2.377019813, -0.299170977
0.731688034, -2.394761832, -0.274060856
0.913922929, -2.357473458, -0.23148417
0.826478259, -2.384325107, -0.207248084
0.74715498, -2.439440794, -0.185072431
0.832486466, -2.398005822, -0.114957232
0.932349272, -2.397675386, -0.046970451
0.848843739, -2.441547027, -0.023189705
1.036443352, -2.400728057, 0.022682974
0.928557785, -2.385213137, 0.046241728
0.845124841, -2.429209651, 0.070944578
1.036072384, -2.399178454, 0.118122247
0.932673083, -2.392819039, 0.140435411
2.233045629, -2.474069197, 1.01868275
2.405679959, -2.470380762, 1.01329087
2.576940698, -2.453491739, 1.007451292
2.804979033, -2.477120185, 1.021081908
2.210637923, -2.447610571, 0.87017429
2.375347666, -2.439232763, 0.861400717
2.567057085, -2.447757096, 0.860930974
2.780308331, -2.460866254, 0.863346763
2.206773222, -2.441874666, 0.737922711
2.36072424, -2.425316901, 0.72342246
2.532286372, -2.41637484, 0.712630979
2.756578077, -2.443210778, 0.713793952
2.189966333, -2.423277226, 0.606184524
2.371185693, -2.436745183, 0.596704002
2.536724919, -2.421879581, 0.580991075
2.750302, -2.44133627, 0.573585713
2.158472645, -2.388176965, 0.475522736
2.322591921, -2.388391925, 0.459260757
2.512597194, -2.401360074, 0.445355703
2.71613984, -2.413555609, 0.430830362
2.160005328, -2.389872773, 0.356323581
2.318843832, -2.386036907, 0.334854668
2.508101342, -2.3988229, 0.316702561
2.707009312, -2.407810749, 0.296265715
2.170922509, -2.404059357, 0.238951833
2.329611333, -2.397786274, 0.214549506
2.50454808, -2.397098879, 0.189576892
2.697089495, -2.401518053, 0.163230856
2.164519078, -2.398482892, 0.120104369
2.322511674, -2.392984472, 0.091982552
2.504708858, -2.399263887, 0.062661158
2.712931274, -2.416133069, 0.031513287
2.153749081, -2.388308197, 0.002189062
2.32767406, -2.399308941, -0.029989626
2.498726389, -2.395373877, -0.063199257
2.698565041, -2.406296196, -0.10086636
2.131289057, -2.365393668, -0.114524072
2.313867398, -2.387243923, -0.150561851
2.653004211, -2.367249495, -0.229494211
2.255287378, -2.505648885, -0.244544485
2.299024451, -2.374168024, -0.271419696
2.476940299, -2.379388205, -0.314450126
2.748770383, -2.454424602, -0.373733686
2.357602317, -2.437468088, -0.403343415
2.574250488, -2.474334869, -0.459239874
2.743367432, -2.451149749, -0.509505932
2.162244767, -2.408018732, -0.47495706
2.372479051, -2.455677636, -0.533785193
1.040867115, -2.406818278, 0.214436063
1.038248828, -2.397547132, 0.309788111
2.136933538, -2.383175558, -0.590774505
1.045681245, -2.411247169, 0.409924205
0.879707485, -2.517987879, 0.468098012
1.048227466, -2.412157676, 0.509662588
1.057941739, -2.42998537, 0.616255647
0.942555077, -2.404889212, 0.626946446
1.066762025, -2.442785829, 0.727313506
0.95859084, -2.440411328, 0.74237555
0.85401665, -2.441578593, 0.760109173
1.171843109, -2.424465384, 0.653599916
1.289828119, -2.433865446, 0.640489167
2.221613261, -2.476637042, 1.016928941
2.388748122, -2.468097913, 1.00934373
2.569401585, -2.461386237, 1.007451294
2.756260284, -2.44918781, 1.006077516
2.19730531, -2.447905298, 0.867878319
2.364481884, -2.44302566, 0.860174351
2.555327968, -2.451584777, 0.859515724
2.760379927, -2.458371946, 0.859496599
2.18166662, -2.429032568, 0.732015829
2.338993721, -2.417788243, 0.719033053
2.525567933, -2.424810959, 0.712830475
2.743940715, -2.447082417, 0.712462208
2.179893377, -2.427058476, 0.605454604
2.354797165, -2.434804277, 0.594456847
2.524302612, -2.424866658, 0.579847083
2.736166934, -2.443838871, 0.572198715
2.145847088, -2.388900283, 0.474353651
2.311122764, -2.391232455, 0.458441401
2.501643272, -2.405619651, 0.444720227
2.69983878, -2.413934487, 0.429417404
2.148013655, -2.391312291, 0.355553995
2.305982654, -2.387414642, 0.334053582
2.49570709, -2.401672695, 0.31606643
2.689954696, -2.4074635, 0.295206182
2.163536695, -2.410708391, 0.238951833
2.311845958, -2.39415393, 0.213588829
2.484955026, -2.392997048, 0.188648655
2.68301266, -2.403781811, 0.162824472
2.150478355, -2.397673204, 0.119732869
2.30613724, -2.390745797, 0.091624104
2.487257833, -2.397223124, 0.06240827
2.69582472, -2.415769619, 0.031400522
2.142407364, -2.390436456, 0.002184978
2.318913936, -2.404999079, -0.029971685
2.487048082, -2.398863833, -0.063089726
2.674057118, -2.399210131, -0.100224962
2.110022118, -2.356287035, -0.113769209
2.291978099, -2.379223072, -0.149611798
2.635333253, -2.366044226, -0.228592467
2.252909359, -2.518503288, -0.245123306
2.285509934, -2.374747358, -0.270683014
2.490393956, -2.407046393, -0.317094098
2.721245487, -2.444893475, -0.371009367
2.297811877, -2.39028352, -0.394367104
2.561656451, -2.477394447, -0.458346907
2.726995003, -2.451607803, -0.507859711
2.123225645, -2.379207808, -0.46798734
2.355353811, -2.452967547, -0.531622857
0.953252683, -2.415227616, 0.582156043
1.047448614, -2.39064529, 0.557877652
2.13353754, -2.394125403, -0.591863482
1.156441823, -2.394841002, 0.541455914
1.274968037, -2.409787999, 0.528306445
0.937775159, -2.376013035, 0.47407208
1.04002792, -2.37461089, 0.45496085
1.149519166, -2.382097331, 0.438153879
1.265663569, -2.396550977, 0.422715092
0.933504435, -2.364829746, 0.375566494
0.762649393, -2.47955027, -0.478790548
1.056845859, -2.438882947, -0.468537259
0.942158583, -2.414192688, -0.430278587
0.83522529, -2.394721984, -0.396477609
2.208913411, -2.477730553, 1.014590415
2.369192476, -2.462968606, 1.004268869
2.563223399, -2.470592969, 1.007996082
2.749452486, -2.458275357, 1.006340846
2.181417277, -2.445255146, 0.86456186
2.349582773, -2.442582842, 0.85747629
2.538705342, -2.450638844, 0.856449421
2.739768046, -2.455128729, 0.85541994
2.16640668, -2.426979213, 0.729390544
2.343765106, -2.437641517, 0.722795418
2.504726342, -2.419612632, 0.709039918
2.726921304, -2.446965517, 0.709989091
2.165234892, -2.425666598, 0.60344736
2.332982487, -2.427105364, 0.590826807
2.515432554, -2.431228322, 0.579520211
2.7242471, -2.448259049, 0.571274068
2.134555216, -2.39104443, 0.473476837
2.30308947, -2.397597106, 0.458304818
2.486409792, -2.405696428, 0.443322111
2.673225726, -2.40493778, 0.426356021
2.136695728, -2.39344213, 0.35489435
2.29795829, -2.39376013, 0.333953445
2.478310875, -2.39961991, 0.314794169
2.678853012, -2.412370265, 0.294798665
2.152147581, -2.412869288, 0.238510416
2.30034386, -2.396915082, 0.213204558
2.47616763, -2.399219728, 0.188539459
2.654107481, -2.392604228, 0.161515017
2.140452354, -2.401275545, 0.119584274
2.289798586, -2.388428991, 0.091265664
2.472713679, -2.397882229, 0.062227638
2.672804998, -2.409966885, 0.031218367
2.131737744, -2.393264328, 0.002181574
2.304606074, -2.40488236, -0.029881975
2.477524192, -2.404393719, -0.063034964
2.661490009, -2.402713894, -0.100029757
2.101454301, -2.361256248, -0.113697318
2.268778236, -2.369647319, -0.14857125
2.443745334, -2.373766281, -0.187311629
2.63916965, -2.384152524, -0.229558629
2.271324294, -2.37454569, -0.269864521
2.445874045, -2.378573482, -0.312353204
2.702661383, -2.443222989, -0.369495885
2.304873311, -2.412399422, -0.396847403
2.534851283, -2.466566169, -0.454902622
2.716522332, -2.457304606, -0.50731099
2.106068757, -2.374607198, -0.465809297
2.342360372, -2.454463936, -0.530387252
0.737275627, -2.391112113, -0.367216867
1.035674315, -2.389339562, -0.36065996
2.12292243, -2.396978642, -0.590956
0.929387908, -2.377792155, -0.328356507
0.838545514, -2.399795814, -0.302359915
0.742258825, -2.402953292, -0.275257627
1.03068275, -2.375777963, -0.262642758
0.922602468, -2.35836813, -0.231848847
0.835106591, -2.385541001, -0.207575493
0.752865495, -2.431420537, -0.18463833
1.025508124, -2.361592105, -0.166178804
0.92642566, -2.364126726, -0.139605354
0.840170018, -2.396383185, -0.115002472
0.762737661, -2.458746124, -0.09259699
2.193691037, -2.475906353, 1.0110828
2.356321115, -2.464677644, 1.002013312
