x	y	z
6.452353087, -9.241194983, 2.851550159
6.982809293, -9.250912947, 2.813239215
7.523637596, -9.234305971, 2.769640034
5.962683045, -9.256397368, 2.468639294
6.466790854, -9.266350407, 2.415240338
6.987528406, -9.264223894, 2.362535348
7.542865956, -9.270786022, 2.316025514
5.985219076, -9.291381897, 2.051210206
6.492852795, -9.306463982, 1.991490956
7.004653363, -9.291987694, 1.927648351
7.55013287, -9.293957144, 1.86762091
-0.183523141, -9.24893007, -0.597084281
4.361588184, -9.307332787, 0.089161871
3.980114878, -9.363539198, 0.183810876
-0.155130212, -9.248451502, -0.597019907
4.366756784, -9.315824195, 0.465038618
3.983434345, -9.360456035, 0.556281476
4.362808756, -9.294734084, 0.839650474
3.985113443, -9.355337058, 0.927934007
4.376791014, -9.312688132, 1.220077637
3.961350494, -9.290105943, 1.294124383
4.366802874, -9.278811618, 1.59947499
3.957666837, -9.268014802, 1.669430062
5.884401818, -9.209469594, 3.340460929
6.405138476, -9.23379635, 3.302358376
6.912166069, -9.201593042, 3.258551833
-0.126769315, -9.249881691, -0.597084281
-0.123109109, -9.205594852, -0.256836933
-0.117144168, -9.17890675, 0.07962895
7.485135832, -9.223740421, 3.241191373
5.912005819, -9.245912263, 2.89547867
6.404079497, -9.232270289, 2.842720326
6.9287395, -9.238086084, 2.802861091
7.487303882, -9.247504516, 2.766695804
5.925316399, -9.260674234, 2.464919967
6.437774254, -9.285343337, 2.415031246
6.939092666, -9.258957555, 2.355752102
7.491549633, -9.265637685, 2.308986446
5.94396765, -9.289823292, 2.046830695
6.450804068, -9.306911873, 1.987342236
6.958961002, -9.290535261, 1.922908829
7.51041236, -9.303239196, 1.864846911
-0.098379864, -9.249229511, -0.597019907
-0.094969166, -9.215925329, -0.257115794
-0.08920607, -9.202221782, 0.079828454
-0.088261096, -9.204179047, 0.416046788
-0.083312341, -9.189944578, 0.751545035
-0.078840869, -9.192268808, 1.089969041
4.376785716, -9.28193721, 1.988616247
3.96532643, -9.279225203, 2.054499974
4.377334716, -9.266745162, 2.383036441
3.978293926, -9.300135828, 2.455186483
-0.069980503, -9.246494008, -0.596826669
-0.066723589, -9.220170867, -0.257227344
-0.061026636, -9.210451097, 0.079897849
-0.06005523, -9.209401479, 0.416272541
-0.055195299, -9.203113274, 0.752604567
-0.050644486, -9.193460543, 1.090086703
4.366928633, -9.218039803, 2.783165442
3.9947677, -9.319298276, 2.870882033
4.083077988, -9.334358616, 0.751580045
4.481444843, -9.304792124, 0.662797834
4.071199444, -9.315172776, 0.377921951
4.477143308, -9.308324776, 0.284908772
5.837672015, -9.198410909, 3.329937848
6.366435339, -9.238393732, 3.297001588
6.878148173, -9.215045294, 3.255827425
7.440451355, -9.22638516, 3.234083879
5.878946203, -9.256660413, 2.893182698
-0.041657239, -9.256645007, -0.597470758
-0.03846536, -9.227329384, -0.257422549
-0.032822449, -9.225594056, 0.080027966
-0.031818151, -9.21453663, 0.416498323
-0.026974884, -9.208222921, 0.753012084
-0.022448803, -9.197544268, 1.090557697
6.370774133, -9.244689948, 2.840513045
6.892816087, -9.24916989, 2.799794554
7.455233951, -9.265877818, 2.765336818
5.884316042, -9.259044249, 2.459669511
6.379856861, -9.262367152, 2.403953128
6.883147089, -9.243263898, 2.346375338
7.442181102, -9.262557044, 2.30251815
5.903836598, -9.289760257, 2.042816204
6.385352958, -9.273117328, 1.975933667
6.889782859, -9.25723313, 1.911632226
7.466996278, -9.307739663, 1.861148441
-0.013250913, -9.251738898, -0.597148713
-0.010159431, -9.230402818, -0.257506204
-0.004526404, -9.241651093, 0.080166748
-0.003548586, -9.215590511, 0.416543474
0.001276776, -9.216236006, 0.7536641
0.00577956, -9.214451545, 1.092559458
4.074995412, -9.333178597, 0.006932028
4.479748278, -9.318736552, -0.092758816
4.076045887, -9.346258042, -0.366757413
4.477170307, -9.324207364, -0.468424704
0.015152673, -9.263711372, -0.597921666
0.018176794, -9.239387583, -0.257757199
0.023867852, -9.25762085, 0.080305537
0.024826309, -9.253518667, 0.418259313
0.029657243, -9.249078456, 0.756353759
0.034247225, -9.268014697, 1.098917607
0.039032701, -9.252056977, 1.443056548
0.045882342, -9.233121911, 1.789240976
0.052087006, -9.218909313, 2.143645591
0.062214343, -9.193687646, 2.508613097
4.40251782, -9.33491056, -0.28793065
4.007579737, -9.358305567, -0.18587373
5.796165259, -9.19524311, 3.322338016
6.293619081, -9.192964386, 3.273882614
6.842966653, -9.226829706, 3.25255823
7.397631208, -9.231100439, 3.227766499
5.82214655, -9.229674729, 2.879151766
6.333619086, -9.251392501, 2.836588439
6.855154472, -9.257777149, 2.796020624
7.389668028, -9.24230101, 2.751521415
5.84806953, -9.264675753, 2.456387916
0.043610821, -9.271604483, -0.598436948
0.046583149, -9.25128342, -0.25809182
0.052252785, -9.254504227, 0.080279512
0.053307508, -9.269382117, 0.41898178
0.058164202, -9.269873591, 0.758065306
0.062801823, -9.28574017, 1.101037028
0.06737423, -9.245965614, 1.442131843
0.074224724, -9.234900591, 1.789621373
0.080395452, -9.221628598, 2.144325085
0.09031552, -9.182841379, 2.505717501
6.324350181, -9.242350406, 2.39371114
6.857088109, -9.267488342, 2.34717356
7.41434168, -9.286112655, 2.302708407
5.864812065, -9.291200437, 2.03916673
6.345751509, -9.276405643, 1.972476598
6.860762872, -9.277534331, 1.911468791
7.410073233, -9.295065538, 1.854059424
0.072071008, -9.273423143, -0.598565754
0.074965466, -9.251096661, -0.25809182
0.080714664, -9.262300004, 0.080348907
0.081780561, -9.273171553, 0.419162383
0.086715234, -9.281611181, 0.759043359
0.091162864, -9.272594701, 1.09950638
0.095688977, -9.240774961, 1.441361391
0.102567557, -9.235611587, 1.789811632
0.108789942, -9.230103728, 2.146363325
0.118537448, -9.186379789, 2.506770359
4.396528318, -9.307470519, 0.089291988
4.015126425, -9.365987681, 0.184099885
4.397450629, -9.306899015, 0.46526437
4.014495937, -9.353696727, 0.556609122
4.396845813, -9.293017494, 0.840710007
4.014582627, -9.344897189, 0.928115742
4.412994044, -9.31537033, 1.222197059
3.990616864, -9.279731312, 1.294378538
0.100575214, -9.278147151, -0.598887798
0.103302413, -9.246824818, -0.257980299
0.109201313, -9.268007692, 0.080400949
0.110253611, -9.274874806, 0.419252684
0.115091455, -9.27332874, 0.758391344
0.119507879, -9.264327723, 1.098564389
0.1242245, -9.254270089, 1.443518843
0.130971098, -9.240161556, 1.790762921
0.137295067, -9.242387301, 2.149307557
0.146843562, -9.19369039, 2.508876312
4.402871711, -9.281439643, 1.602248872
3.986082016, -9.255829351, 1.669430063
4.407770424, -9.273785876, 1.989757795
3.996878719, -9.274215053, 2.056095949
5.766405147, -9.210550082, 3.321461112
6.260529845, -9.205089449, 3.271345125
6.808348136, -9.239259891, 3.249561546
7.339827311, -9.216773805, 3.214868053
5.770701549, -9.210620958, 2.867671909
6.287215119, -9.244326087, 2.828494602
6.81347441, -9.260761695, 2.790595648
7.353401746, -9.255015445, 2.748577186
5.805105606, -9.259426036, 2.45026223
6.290467424, -9.253622938, 2.391620926
6.808889448, -9.261638825, 2.340390314
7.346154596, -9.258826109, 2.290342589
5.819044844, -9.281659277, 2.033144992
6.310064723, -9.285239769, 1.970229384
0.129150722, -9.285778413, -0.599403081
0.131628089, -9.2434661, -0.257896615
0.137708886, -9.27262865, 0.080444326
0.138872337, -9.285480112, 0.419749369
0.14354109, -9.272931731, 0.758391343
0.147755465, -9.252996085, 1.097269181
0.152664487, -9.256808895, 1.443981136
0.159437377, -9.24658688, 1.792094607
0.165841675, -9.252635202, 2.151799029
0.175618072, -9.223098033, 2.517036663
6.827594269, -9.292178507, 1.910161421
7.334278791, -9.258120542, 1.842193212
0.157502964, -9.277355977, -0.598887798
0.159934122, -9.240020101, -0.257812959
0.166012929, -9.264163746, 0.080374932
0.167287117, -9.28101496, 0.419568767
0.172007852, -9.273444028, 0.758472823
0.176161465, -9.25349141, 1.097386958
0.181140558, -9.260248411, 1.444597567
0.188024066, -9.256851176, 1.794187326
0.194104917, -9.246239999, 2.150440044
0.203998606, -9.226373501, 2.51808952
4.41076847, -9.26382539, 2.385754175
3.996799156, -9.264686886, 2.449053643
4.398098144, -9.210692648, 2.785007941
3.99508722, -9.241643036, 2.850722073
4.180153134, -9.359430659, -0.464217302
4.591418577, -9.343044771, -0.190072415
4.176273826, -9.339361396, -0.091780994
4.578692815, -9.308118499, 0.187405439
0.186064754, -9.281817182, -0.599209842
0.188301722, -9.240485577, -0.257840854
0.19443421, -9.263610983, 0.080374932
0.196097175, -9.296438188, 0.420291235
0.200543723, -9.276858808, 0.758798861
0.204703585, -9.259857048, 1.098211171
0.209326203, -9.249771398, 1.443056549
0.216514582, -9.260156941, 1.79494824
0.222564794, -9.249496401, 2.151346035
0.232060925, -9.216059517, 2.515457139
4.174768226, -9.330749011, 0.281958491
5.732565462, -9.219264491, 3.318245798
6.220979757, -9.207558722, 3.265424476
6.775991589, -9.254670446, 3.247654674
7.301339026, -9.226388325, 3.210392939
5.736797254, -9.2192516, 2.864865723
6.24308501, -9.240276316, 2.821381623
6.774707685, -9.267500052, 2.78634989
7.313505201, -9.263006457, 2.744273968
5.757071244, -9.24571554, 2.441948812
6.250007947, -9.255048976, 2.387022546
6.767726871, -9.265077297, 2.336001267
7.307381121, -9.268214194, 2.28710844
5.783265717, -9.28778339, 2.030590337
6.276588379, -9.297207867, 1.968673701
6.778112463, -9.284396246, 1.904277965
7.295451064, -9.267380252, 1.839573468
0.214540086, -9.281203387, -0.599209843
0.216439351, -9.23087022, -0.257589859
-0.116212957, -9.198732718, -0.167965454
0.222925795, -9.265970245, 0.080400949
-0.112362867, -9.172815379, 0.165729629
0.224713846, -9.299787402, 0.420471837
0.229126771, -9.28118194, 0.759206378
0.233811264, -9.286981764, 1.101508024
0.237652352, -9.247110187, 1.442748275
0.244533941, -9.244728208, 1.792094608
0.25102004, -9.251690832, 2.152025527
0.260388773, -9.217232949, 2.515983568
4.597675427, -9.336831314, 0.569112866
4.171434609, -9.310219972, 0.6547282
0.243117897, -9.284491529, -0.599467513
0.24478475, -9.231162089, -0.257617754
-0.088048474, -9.20504475, -0.168074978
-0.084468382, -9.200111284, 0.166217344
0.253216945, -9.298055895, 0.420426687
-0.080638752, -9.202897325, 0.503263323
0.257655271, -9.282427064, 0.759369395
-0.077103862, -9.164595565, 0.836331085
0.262554571, -9.295154558, 1.102567793
-0.073961502, -9.191546671, 1.177828568
0.266475611, -9.262140076, 1.445214
0.273242843, -9.255710008, 1.794377466
0.279579094, -9.256718096, 2.153384275
0.288424016, -9.20867645, 2.513877852
4.587421339, -9.307808647, 0.946927087
4.17169713, -9.307322436, 1.026493763
4.010066109, -9.25077885, 3.081771048
4.42237213, -9.227322888, 3.006885754
4.437573501, -9.334902379, -0.288348955
4.035082539, -9.343212345, -0.185818968
4.43194064, -9.308383915, 0.08943077
4.042651711, -9.350872685, 0.184045689
5.698726963, -9.227857976, 3.315030249
0.271630343, -9.284699758, -0.599531887
0.272897475, -9.223373933, -0.257422549
-0.059872341, -9.215269212, -0.168257532
-0.056279116, -9.206325722, 0.16632572
0.281772028, -9.298234101, 0.420471837
-0.052421339, -9.206096442, 0.503427117
0.286162844, -9.282589266, 0.759450875
-0.049082725, -9.182714132, 0.837966816
0.290915047, -9.289343119, 1.10197902
-0.045682876, -9.175860524, 1.175794977
0.295141747, -9.269178614, 1.44644686
0.301797603, -9.259734234, 1.795328755
0.307815015, -9.250950188, 2.152252025
0.316674474, -9.207748798, 2.513877854
6.1793352, -9.206685537, 3.258375871
6.69888896, -9.208500492, 3.224225518
7.236621254, -9.202486074, 3.194335686
5.701369705, -9.225293224, 2.861294213
6.203901419, -9.243286781, 2.816476159
6.737106205, -9.275660493, 2.782575962
7.256193513, -9.248617716, 2.733403034
5.723546337, -9.255035539, 2.439761083
6.211777979, -9.259562247, 2.383260063
6.71279452, -9.249316568, 2.326824059
7.255904608, -9.261223057, 2.279879113
5.743366975, -9.287086096, 2.026575846
6.240355266, -9.304968551, 1.966253636
6.725267396, -9.271607362, 1.897413896
7.260897134, -9.281935862, 1.83803233
0.299952915, -9.278835443, -0.599209842
0.30119308, -9.222492743, -0.257422549
-0.03164115, -9.227408156, -0.168476594
-0.028046418, -9.210453978, 0.166397976
-0.024192918, -9.212204722, 0.503754704
-0.02094434, -9.197759459, 0.839329974
0.31954951, -9.292376503, 1.102450016
-0.017535306, -9.177941777, 1.176049251
0.323784652, -9.274154796, 1.447371567
0.330309612, -9.26170849, 1.795899413
0.33630123, -9.252881713, 2.15293128
0.345572077, -9.224086875, 2.518615948
4.434144641, -9.310500668, 0.46612229
0.327712536, -9.257925463, -0.597921666
-0.007552037, -9.267999501, -0.509562308
0.329664355, -9.226520571, -0.257561994
-0.0033411, -9.253456898, -0.168951226
0.337706225, -9.292516018, 0.080661176
2.11172E-4, -9.218495619, 0.166542472
0.338164685, -9.27835968, 0.419659068
0.004073812, -9.221222165, 0.504246144
0.34351942, -9.291614447, 0.760347389
0.007288264, -9.215706315, 0.840965764
0.347907902, -9.287383258, 1.10197902
0.01064182, -9.194814011, 1.178209918
0.352348331, -9.27607966, 1.447833861
0.358532559, -9.255746701, 1.794948241
0.363804706, -9.22942208, 2.147722312
0.373986784, -9.225875149, 2.519405592
4.043570621, -9.342252362, 0.55666372
4.436060977, -9.301974741, 0.842747592
4.044025185, -9.334364199, 0.928297477
4.44540348, -9.309852197, 1.223256828
4.02104154, -9.27199488, 1.295014043
4.44240775, -9.291065085, 1.606255617
4.015638816, -9.246271598, 1.669920371
4.44298766, -9.274385753, 1.992801685
4.018282552, -9.245732435, 2.052504888
5.657889684, -9.224917919, 3.307722719
6.145738024, -9.217617107, 3.255556569
0.355730266, -9.246904587, -0.597277519
0.020872821, -9.263984862, -0.509342724
0.358163158, -9.230460165, -0.257701409
0.025159086, -9.294416796, -0.169699682
0.366489341, -9.298430005, 0.080721898
0.028700172, -9.285440457, 0.167752715
0.366944291, -9.285264565, 0.420020302
0.032507788, -9.262105183, 0.506484776
0.372024067, -9.290517251, 0.76034739
0.03575376, -9.265432913, 0.845509544
0.375796305, -9.271388874, 1.100212816
0.038867827, -9.19870623, 1.178718229
0.380886374, -9.27692922, 1.448142017
0.0438241, -9.228132302, 1.528717445
0.386804077, -9.251660266, 1.794377467
0.046374754, -9.255010114, 1.884322397
0.392862753, -9.24577877, 2.15179903
0.049407123, -9.188087237, 2.230164884
0.402751962, -9.23528655, 2.522301186
0.056329663, -9.192449346, 2.602809428
6.663278649, -9.218872118, 3.220683812
7.192909955, -9.204880554, 3.187491643
5.667981832, -9.234500299, 2.858743133
6.148086519, -9.221140447, 2.803967291
6.69383165, -9.275797825, 2.77644336
7.190654846, -9.223210351, 2.719361133
5.692572277, -9.268394567, 2.43866722
6.170868001, -9.259859518, 2.378452591
6.663180672, -9.240459651, 2.319442382
7.21780805, -9.271046288, 2.276835224
5.700954117, -9.282041233, 2.021649161
6.186658294, -9.286364154, 1.958302256
6.676025645, -9.263382942, 1.891530439
7.226928672, -9.297147739, 1.836645449
0.384221967, -9.248760675, -0.597470757
0.049299543, -9.264875427, -0.50939762
0.386814694, -9.237307968, -0.25792451
0.053610323, -9.283297951, -0.169498888
0.395184595, -9.301258358, 0.080756595
0.057175051, -9.283309216, 0.16771658
0.395301832, -9.281100608, 0.41988485
0.061067866, -9.283928523, 0.507686047
0.400696945, -9.293315312, 0.760673427
0.06429681, -9.282209562, 0.847054438
0.404368519, -9.273168565, 1.100566034
0.067038236, -9.191600171, 1.177828569
0.409345796, -9.275717376, 1.448142018
0.072150824, -9.229927109, 1.529044316
0.41545006, -9.256314689, 1.795519015
0.07467351, -9.243065434, 1.881928316
0.4212709, -9.245502847, 2.152025527
0.077570921, -9.184977534, 2.229457259
0.430768595, -9.227261377, 2.520458684
0.084531435, -9.192233394, 2.602809428
4.441697504, -9.255518604, 2.387112925
4.011635663, -9.221192102, 2.440798161
4.448509096, -9.243229382, 2.798959481
0.412861843, -9.253520202, -0.597857234
0.077757054, -9.268675154, -0.509617204
0.4155565, -9.245065079, -0.258175505
0.082117353, -9.286088904, -0.16955365
0.423991668, -9.30599547, 0.080808638
0.085655571, -9.283089596, 0.167716579
0.424138565, -9.287828067, 0.420246084
0.089434696, -9.271715682, 0.507030813
0.428976611, -9.287064411, 0.76026591
0.092535044, -9.258068313, 0.844873384
0.432353271, -9.261964428, 1.099388603
0.095237351, -9.191351477, 1.177828569
0.437894537, -9.276391387, 1.448450291
0.100542669, -9.236567974, 1.53018825
0.444034206, -9.258919142, 1.796279929
0.102975869, -9.237893225, 1.880930889
0.450154248, -9.254868038, 2.154516762
0.105749669, -9.184695895, 2.229457257
0.45917132, -9.227823494, 2.520985113
0.112767806, -9.19481688, 2.603626726
4.020729714, -9.22316835, 2.848814963
4.849737717, -9.208874528, 2.946890352
5.312753003, -9.232085974, 2.906358468
3.998294357, -9.21524704, 2.650319759
4.431694996, -9.246774543, 2.594258363
4.861798134, -9.248603954, 2.536090253
5.315640817, -9.261018718, 2.482914751
4.006223063, -9.226022854, 2.255116384
4.442892149, -9.275536761, 2.198276332
4.878007525, -9.287702951, 2.135897985
5.30846928, -9.263121964, 2.068898936
4.015208338, -9.246716048, 1.870924155
4.442926439, -9.278933382, 1.805496212
4.87936033, -9.29618967, 1.739214347
5.323363931, -9.305294352, 1.672059262
5.617124158, -9.221814029, 3.300415188
6.102595802, -9.214032014, 3.247662293
6.622055799, -9.221295975, 3.214417933
7.133276946, -9.186519389, 3.173540341
0.441011595, -9.247226144, -0.59753519
0.106284097, -9.27637968, -0.510056371
0.444253666, -9.250736007, -0.25837071
0.110594376, -9.28479382, -0.169535396
0.452442906, -9.302653511, 0.080791293
0.114098411, -9.279784343, 0.167662399
0.453020275, -9.294465382, 0.420607318
0.117803331, -9.265407495, 0.506703226
0.457319791, -9.282717495, 0.760021411
0.120989992, -9.261724262, 0.845236913
0.461260023, -9.270512286, 1.100566033
0.123502171, -9.195974597, 1.178464073
0.466550513, -9.278952205, 1.449066724
0.128962178, -9.242134487, 1.531168864
0.472838359, -9.265356843, 1.797801874
0.13140041, -9.243413087, 1.882127872
0.478797189, -9.258307516, 2.155649251
0.134111628, -9.19696026, 2.232523795
0.487836017, -9.233115289, 2.522827614
0.141153592, -9.205972396, 2.606895921
5.633081672, -9.241113588, 2.855426732
6.110131827, -9.22541013, 2.799552256
6.632499598, -9.25048461, 2.762762901
7.155762874, -9.23675785, 2.716869897
5.65801265, -9.275819099, 2.436041992
6.135412377, -9.268146868, 2.375735332
6.617108623, -9.23616433, 2.313257566
7.185726214, -9.288487608, 2.275693677
5.660162289, -9.279343584, 2.017269653
6.152159551, -9.29626529, 1.956400867
6.647574339, -9.283821375, 1.891530439
7.17904409, -9.294253308, 1.831713999
0.468823066, -9.234866217, -0.596826669
0.135047683, -9.296976431, -0.511209244
0.472071284, -9.23834766, -0.258063954
0.139064234, -9.283411456, -0.169517142
0.481187467, -9.305216205, 0.08082599
0.142567846, -9.279390163, 0.167662399
0.481636544, -9.295027293, 0.42069762
0.14627592, -9.267997545, 0.50686702
0.48537983, -9.273308928, 0.759369396
0.149275487, -9.253343385, 0.844509915
0.489489797, -9.265087355, 1.100095155
0.151730809, -9.196544095, 1.17859115
0.495068366, -9.278463612, 1.449220743
0.157483951, -9.251560005, 1.532803224
0.501739231, -9.272684753, 1.799514075
0.159859802, -9.248844688, 1.883324852
0.50719901, -9.256794983, 2.155649251
0.16266987, -9.215937956, 2.237241145
0.515783532, -9.224831937, 2.520985111
0.169608884, -9.217040578, 2.610165118
4.023868882, -9.265332511, 1.492182711
4.440677174, -9.282137028, 1.418478036
4.044857534, -9.313660715, 1.123172443
4.45206414, -9.313453473, 1.038910604
0.496562817, -9.222423774, -0.596118149
0.163604901, -9.298515411, -0.511319036
0.500736373, -9.242844573, -0.258231265
0.167454467, -9.277942102, -0.169425858
0.509623797, -9.301699682, 0.080808638
0.171220221, -9.28890607, 0.167843031
0.510534338, -9.300487731, 0.421013703
0.175066641, -9.286473405, 0.507904439
0.513993132, -9.274761255, 0.759613894
0.177778361, -9.258816034, 0.845055178
0.51802324, -9.265525106, 1.100330594
0.179828265, -9.190085459, 1.177828569
0.523531964, -9.276900667, 1.449220742
0.186025134, -9.258924118, 1.534110593
0.530129038, -9.270121583, 1.799323817
0.188612966, -9.266925301, 1.88711547
0.535314685, -9.2503333, 2.154516763
0.191064, -9.221225121, 2.238656398
0.544480175, -9.229948114, 2.522827614
0.197947538, -9.219362064, 2.610982415
4.47007918, -9.329357489, -0.288599921
4.062929703, -9.328955837, -0.18578246
4.481243835, -9.338015626, 0.089847131
4.070121766, -9.335676016, 0.183991508
5.576431336, -9.218547259, 3.293107423
6.06006086, -9.21106985, 3.240049826
6.579763242, -9.221987157, 3.207607266
7.100344791, -9.202250295, 3.17143439
5.574659842, -9.208722765, 2.840120259
6.082865722, -9.245732244, 2.800042686
0.524400811, -9.212885722, -0.595602867
0.192255336, -9.303959189, -0.511648412
0.528062193, -9.22330172, -0.257729304
0.195833564, -9.273386826, -0.169352842
0.537985281, -9.29709738, 0.080782613
0.199824834, -9.293335536, 0.167933347
0.539238825, -9.301869757, 0.421149154
0.2038189, -9.297871549, 0.508559672
0.54256166, -9.27513066, 0.759776913
0.20636055, -9.266191716, 0.845782176
0.546330114, -9.261909234, 1.100095155
0.208224233, -9.198414945, 1.1789725
0.551638488, -9.269332875, 1.448296154
0.214498768, -9.261268529, 1.5346009
0.558212499, -9.262572081, 1.798182388
0.216744301, -9.253567516, 1.884521951
0.563869547, -9.251564372, 2.155196256
0.219422754, -9.223510538, 2.239364026
0.573213019, -9.234974099, 2.524670349
0.226372829, -9.224482989, 2.612617013
6.586609757, -9.246252531, 2.755450841
7.119667254, -9.248634646, 2.713925666
5.6093055, -9.259750089, 2.427291075
6.092442085, -9.26486539, 2.370091727
6.579649538, -9.243648963, 2.310065617
7.148819155, -9.29959286, 2.273030303
5.621478794, -9.27984575, 2.013620179
6.108461002, -9.292051298, 1.951560851
6.604191686, -9.283271524, 1.887281226
7.119213214, -9.275477484, 1.823700394
0.552603308, -9.210237467, -0.595538434
0.220585365, -9.294341091, -0.511154348
0.556356371, -9.221637854, -0.257729304
0.224693984, -9.289734641, -0.169663174
-0.111201876, -9.200957694, -0.082549963
0.565958402, -9.286419674, 0.080704546
0.228335451, -9.29267856, 0.167933347
-0.108893421, -9.168865669, 0.252924443
0.567591426, -9.297180194, 0.421013703
0.232318465, -9.296204811, 0.508505075
0.572178656, -9.29232333, 0.761325442
0.234964438, -9.272484475, 0.846418278
0.575296299, -9.269109428, 1.101154806
0.236341626, -9.193767276, 1.178464074
0.580444139, -9.273513835, 1.449220743
0.243066147, -9.266483939, 1.535581514
0.586254676, -9.254937177, 1.797040958
0.245288536, -9.258736238, 1.885718932
0.592188099, -9.24881809, 2.154969756
0.247979963, -9.23250738, 2.241722698
0.602295469, -9.244724039, 2.527829155
0.254486181, -9.217012955, 2.610709907
4.470469241, -9.313064087, 0.466935059
4.0706155, -9.326142959, 0.55644527
4.476236143, -9.312575487, 0.844948195
4.073441118, -9.323738088, 0.92847927
4.479973598, -9.308697433, 1.224905254
0.580229095, -9.198539295, -0.594894346
0.58489841, -9.223877832, -0.257840854
-0.083063382, -9.211254428, -0.082639675
-0.080965727, -9.192146777, 0.253558607
-0.076083154, -9.183791055, 0.5894027
0.600041336, -9.280578159, 0.760510408
0.263665443, -9.280679313, 0.847236173
-0.074853523, -9.190267896, 0.924955881
0.603343467, -9.2613555, 1.100448372
0.264489528, -9.191015958, 1.17820992
0.608309377, -9.262816007, 1.44783386
0.271754218, -9.274569393, 1.537052318
0.615621713, -9.267788582, 1.79989459
0.274156074, -9.273611886, 1.888911
0.62095157, -9.252788952, 2.156328507
0.276739836, -9.246273964, 2.245260831
0.631114793, -9.24957059, 2.529671657
0.283027949, -9.224844077, 2.613161802
4.055827453, -9.274155056, 1.297047634
4.479041407, -9.294304075, 1.609183754
4.048736213, -9.244752689, 1.671881483
4.476115517, -9.270435947, 1.994894286
4.048202301, -9.236951132, 2.053302875
4.470920062, -9.243601491, 2.387565919
4.043030416, -9.215960941, 2.442685244
5.538766177, -9.220036663, 3.2875537
6.023375072, -9.216768179, 3.235538709
6.531408013, -9.213871307, 3.197799679
7.060926575, -9.209444035, 3.166433082
5.543392683, -9.220809621, 2.83858961
6.040682521, -9.243251241, 2.793665703
6.549229398, -9.253725058, 2.751676914
7.072914203, -9.246450608, 2.706904715
0.60857887, -9.198708145, -0.595023153
0.613061453, -9.220045267, -0.257785064
-0.054868702, -9.222465241, -0.082738351
-0.052769974, -9.193351736, 0.253586203
0.623957264, -9.283555718, 0.420562139
-0.047948968, -9.191964759, 0.589915062
0.628780354, -9.282671252, 0.760836445
0.291980249, -9.274849868, 0.846781807
-0.046683078, -9.195429016, 0.92545656
0.631213343, -9.251535406, 1.099506382
0.292749065, -9.192143679, 1.178464074
0.636317816, -9.254992038, 1.446909156
0.300398431, -9.279608296, 1.538032934
0.643439301, -9.257041744, 1.798182387
0.301966623, -9.253140025, 1.884920946
0.649608619, -9.254727, 2.157234497
0.304785179, -9.235668865, 2.242902155
0.658940064, -9.239892134, 2.527565941
0.311263123, -9.222008756, 2.612617013
5.559241039, -9.240962374, 2.417883794
6.045806627, -9.255677054, 2.362984948
6.532022706, -9.236590234, 2.303282372
7.063045233, -9.246584646, 2.254766962
5.589434077, -9.291151367, 2.012342734
6.05946079, -9.279409893, 1.944992182
6.555180774, -9.274485926, 1.88139777
7.079937726, -9.283133852, 1.820926513
0.636728288, -9.195801847, -0.594958779
0.306579144, -9.305889081, -0.511922891
0.641484049, -9.220115592, -0.257840854
0.310151529, -9.28627343, -0.16964492
-0.026611776, -9.235589582, -0.082854975
0.314190883, -9.300175597, 0.168113978
-0.024596971, -9.205466234, 0.253917069
0.652085606, -9.276614938, 0.420336386
0.318005159, -9.297664659, 0.508723467
-0.01975891, -9.19705855, 0.590235259
0.656552144, -9.270757226, 0.760021412
0.320330534, -9.270924408, 0.846509175
-0.018479675, -9.19950912, 0.925857162
0.660088128, -9.256488173, 1.100330593
0.320741111, -9.185254307, 1.177701491
0.664425532, -9.249053921, 1.446292724
0.328971313, -9.281601602, 1.538523243
0.67091247, -9.242295626, 1.795709272
0.330563223, -9.258044913, 1.886117925
0.678425744, -9.258519409, 2.158593483
0.333153387, -9.235661412, 2.243137952
0.686783551, -9.231092417, 2.525723205
0.339696022, -9.224856785, 2.613706824
4.484003738, -9.244294185, 2.80343436
4.051717617, -9.216955347, 2.850722072
4.054818423, -9.34775661, 0.751653598
4.44642276, -9.30499116, 0.661837186
4.042601756, -9.327618765, 0.377921951
4.447272815, -9.319309754, 0.284826071
0.335451213, -9.313885262, -0.512417013
-0.002476239, -9.265502596, -0.419609722
0.669912823, -9.220098632, -0.257896615
0.339113678, -9.298267643, -0.169882236
0.001730202, -9.275626118, -0.08321381
0.679874473, -9.278775241, 0.080704546
0.343495256, -9.320150334, 0.168493302
0.003650261, -9.218492901, 0.254275501
0.680908321, -9.279551816, 0.420562138
0.346342528, -9.291655757, 0.508450477
0.008458278, -9.198073931, 0.590299333
0.685064799, -9.26969265, 0.760102891
0.348846717, -9.271887935, 0.846690909
0.00975043, -9.205492255, 0.926457977
0.688630838, -9.256400261, 1.100566032
0.349296113, -9.194139154, 1.178972501
0.692945753, -9.248942239, 1.446600997
0.3574453, -9.280548357, 1.538523242
0.699856961, -9.248025323, 1.797231217
0.358964937, -9.256987857, 1.886117927
0.706382337, -9.250566784, 2.157234496
0.361334395, -9.230711484, 2.242194528
0.713684851, -9.21066686, 2.520721896
0.368302748, -9.231462693, 2.61588621
4.043163699, -9.338294672, 0.006926583
4.448985328, -9.327923873, -0.092713963
4.039022651, -9.339457297, -0.36600255
4.441239073, -9.322567054, -0.467655596
5.512412769, -9.24027074, 3.288722903
5.983055092, -9.216695055, 3.229054199
6.488150964, -9.212626831, 3.190443992
7.021531121, -9.216482453, 3.161431538
5.510121133, -9.229471093, 2.836038532
6.004378037, -9.249542329, 2.789986662
6.504599041, -9.250720689, 2.744836684
7.040976843, -9.263453679, 2.70554573
5.524358344, -9.247083911, 2.415039698
6.006736466, -9.257773751, 2.358804515
6.503654689, -9.256586471, 2.303282371
0.364180223, -9.316803583, -0.512636597
0.025969521, -9.272460233, -0.419926402
0.698422999, -9.220990025, -0.257980299
0.367362231, -9.290190331, -0.169754458
0.030229722, -9.288576853, -0.083330434
0.708414253, -9.27764323, 0.080713225
0.372007684, -9.317054239, 0.168457167
0.032119162, -9.272417396, 0.255764425
0.710440673, -9.29136404, 0.421194305
0.374646005, -9.285561479, 0.508177429
0.036693449, -9.201996566, 0.590555514
0.713500608, -9.267547057, 0.760102891
0.377088356, -9.265799491, 0.846236543
0.038029393, -9.214373104, 0.927359198
0.71955736, -9.286917157, 1.10445166
0.378112146, -9.207890093, 1.180879015
0.041018348, -9.235565842, 1.273175146
0.721855774, -9.253668983, 1.447679724
0.385096052, -9.259693457, 1.535254642
0.044124194, -9.244606038, 1.622440216
0.728226192, -9.245834231, 1.797231216
0.38728135, -9.253884646, 1.885718933
0.045306751, -9.222568263, 1.971279195
0.734605051, -9.246414014, 2.156781501
0.388791321, -9.209169947, 2.237241144
0.741397058, -9.201702965, 2.518879162
0.39682927, -9.235095449, 2.617248296
7.018024565, -9.246313813, 2.249440212
5.553339335, -9.295594585, 2.009605687
6.009523401, -9.264902358, 1.938077922
6.519892612, -9.284864594, 1.879436657
7.038891634, -9.28827363, 1.817690219
0.392846196, -9.317637626, -0.512746389
0.054428631, -9.274334288, -0.420016882
0.7272592, -9.225779539, -0.258175505
0.395564408, -9.28202669, -0.169626666
0.058631701, -9.273441384, -0.083195869
0.737428651, -9.282403472, 0.08077394
0.400332533, -9.309875921, 0.168348791
0.060677387, -9.289268259, 0.256233156
0.739180452, -9.292128399, 0.421329757
0.402872052, -9.278382374, 0.507849841
0.064980931, -9.209824, 0.591067875
0.7418501, -9.2643214, 0.760021411
0.405078191, -9.254649396, 0.84532781
0.066298518, -9.214213571, 0.927359199
0.74780655, -9.281695551, 1.104098441
0.406447257, -9.208668645, 1.18113317
0.069307841, -9.229452652, 1.272355819
0.749842866, -9.246486679, 1.446909156
0.413458571, -9.257483327, 1.535091207
0.072316131, -9.222758311, 1.618637319
0.755707603, -9.232793614, 1.795138498
0.415758008, -9.254610865, 1.886117927
0.073624392, -9.225319653, 1.971906237
0.762087882, -9.23343922, 2.154290265
0.41770236, -9.222496113, 2.240779277
0.075532169, -9.202716084, 2.32838183
0.769463127, -9.197462071, 2.518352732
0.425293028, -9.236718262, 2.618065595
0.075113573, -9.151714757, 2.689421876
4.58305248, -9.290356116, 1.327424425
4.150725532, -9.252743922, 1.39799359
4.505200444, -9.329101043, -0.289018226
4.093541655, -9.321024437, -0.18587373
4.515096215, -9.335026271, 0.089951223
0.4200768, -9.286463953, -0.511099452
0.082881633, -9.274124068, -0.420016882
0.756212992, -9.231474542, -0.258398575
0.424267592, -9.285763455, -0.169717936
0.087063159, -9.27121817, -0.083177928
0.428524793, -9.300614281, 0.168204295
0.08916658, -9.288038869, 0.256205589
0.431474951, -9.28009483, 0.508013634
0.093195556, -9.205589816, 0.590811695
0.433608941, -9.256347651, 0.845600442
0.094679334, -9.224911118, 0.928460693
0.778265755, -9.303108606, 1.106924299
0.434884235, -9.211341641, 1.181641597
0.097916454, -9.256933086, 1.276179577
0.777958517, -9.24118832, 1.44644686
0.442140424, -9.262083823, 1.536071704
0.100621567, -9.223478769, 1.618810174
0.786107071, -9.254886787, 1.79989459
0.44410181, -9.252312459, 1.885918487
0.101926927, -9.225050231, 1.971906236
0.788251596, -9.205825942, 2.148401804
0.445759893, -9.216318149, 2.239599822
0.103579525, -9.18596151, 2.324212129
0.797510176, -9.193135749, 2.517826303
0.453723291, -9.237291486, 2.618610616
0.103385005, -9.168710672, 2.694496621
4.105182202, -9.33778983, 0.184280516
4.505546558, -9.312793508, 0.467612376
4.099610729, -9.314524747, 0.556499868
5.471365356, -9.235746687, 3.281123072
5.931873502, -9.199528452, 3.216648804
6.444411184, -9.210414535, 3.182816025
6.983323345, -9.22490478, 3.156956659
5.474876175, -9.234688112, 2.832467021
5.963889577, -9.249180776, 2.784345205
6.452813585, -9.237173613, 2.734929916
6.986108264, -9.250035634, 2.695354052
5.487498918, -9.249722853, 2.411320607
5.969299753, -9.262185216, 2.355251126
6.465690175, -9.26283662, 2.299890867
6.984303877, -9.260747828, 2.247727893
5.505731598, -9.280455291, 2.002671522
5.974136026, -9.272532677, 1.935830828
6.478393967, -9.286214063, 1.875677751
7.000852841, -9.297195839, 1.815224494
0.448468953, -9.283137071, -0.510989661
0.111393808, -9.278820006, -0.42024311
0.785208504, -9.2370794, -0.258621675
0.453338303, -9.296401463, -0.169936997
0.115481535, -9.268907675, -0.083159987
0.790105231, -9.227887994, 0.080340234
0.456958487, -9.297258249, 0.168168159
0.117598153, -9.282724395, 0.256067724
0.791489047, -9.232674818, 0.418846299
0.459943865, -9.278727372, 0.508013634
0.121529621, -9.21224514, 0.591259981
0.795340666, -9.22086887, 0.756842756
0.462153913, -9.257957666, 0.845873073
0.122715246, -9.204679551, 0.926457977
0.463042567, -9.207982137, 1.181387324
0.1262618, -9.252627045, 1.27563336
0.471304992, -9.275463329, 1.538523243
0.12900092, -9.229035747, 1.619847296
0.47263537, -9.253842529, 1.886516919
0.130394156, -9.236427506, 1.974414635
0.474382514, -9.221700089, 2.241250869
0.131969742, -9.200140733, 2.327891167
0.481860156, -9.232012411, 2.617520805
0.131830221, -9.190414327, 2.700981363
0.477766956, -9.29767201, -0.511867995
0.139950645, -9.284428113, -0.42051455
0.814070145, -9.240601885, -0.258789015
0.483358229, -9.323923778, -0.170466406
0.143964176, -9.271509062, -0.083186898
0.81788211, -9.219445021, 0.080288185
0.485792793, -9.301802912, 0.168276535
0.146060858, -9.281320444, 0.256040157
0.819634022, -9.228213444, 0.418755998
0.488565914, -9.280264307, 0.508177428
0.149791821, -9.211829425, 0.591259982
0.823360058, -9.215407239, 0.756598257
0.490712872, -9.25947944, 0.846145646
0.151003172, -9.207244111, 0.926758384
0.828669722, -9.223978267, 1.098093394
0.491290078, -9.20651803, 1.181387323
0.154747199, -9.258138573, 1.276452685
0.500396526, -9.28579533, 1.540484356
0.157851795, -9.260109672, 1.625378724
0.501765286, -9.266047503, 1.889309993
0.158881731, -9.244783968, 1.976295759
0.503148167, -9.22893448, 2.243373748
0.160549201, -9.220048138, 2.333041962
0.509915793, -9.225687559, 2.616158721
0.159891768, -9.182292217, 2.698725922
4.508261815, -9.305974171, 0.845600211
4.104435473, -9.316664746, 0.929024532
4.515878987, -9.310098827, 1.226906898
4.093065828, -9.281635155, 1.299843808
4.517031791, -9.300071561, 1.612574066
4.098999821, -9.281923718, 1.680870102
4.513986594, -9.276080401, 1.999079723
4.083651529, -9.240621316, 2.056893937
4.511208224, -9.254356362, 2.393907377
4.079541228, -9.222176082, 2.44763839
0.506615373, -9.302144231, -0.51219737
0.168470451, -9.285953042, -0.420605031
0.843051535, -9.245028906, -0.25898422
0.510426217, -9.294443528, -0.169955266
0.17248246, -9.275022619, -0.08322278
0.846254562, -9.21788803, 0.080296865
0.514493687, -9.303263847, 0.168330731
0.174704022, -9.289823719, 0.25628832
0.8476676, -9.222671055, 0.418620547
0.5173684, -9.284703727, 0.508505075
0.178014027, -9.209330386, 0.591131891
0.850986424, -9.205890079, 0.756027721
0.519564237, -9.265884476, 0.846872702
0.179153046, -9.201763926, 0.926257706
0.856045644, -9.211504788, 1.096915964
0.51998011, -9.212890709, 1.182404179
0.183130444, -9.256629595, 1.276316071
0.528658169, -9.280275793, 1.53983061
0.186280469, -9.260567273, 1.62555158
0.530470712, -9.269356078, 1.890307536
0.187501041, -9.256963182, 1.979013015
0.532521446, -9.245781371, 2.247855304
0.189013826, -9.228235301, 2.335249478
0.538553692, -9.229843037, 2.617793318
0.188317299, -9.194229139, 2.702391134
5.422153756, -9.217045515, 3.268553884
5.899999784, -9.212028932, 3.214675177
6.403492669, -9.21197132, 3.176549911
6.950349676, -9.240118354, 3.15485071
5.440141653, -9.240609163, 2.829150618
5.930256871, -9.259270738, 2.781892592
6.422227664, -9.253734207, 2.733986495
6.949511487, -9.260518716, 2.692183323
5.445722572, -9.2438152, 2.405413786
5.919766427, -9.247511005, 2.346890264
6.423840222, -9.263303873, 2.295102706
6.948206029, -9.271918529, 2.245254776
5.470745501, -9.286290393, 2.000299493
5.937696543, -9.278373166, 1.933237907
6.440319814, -9.292261516, 1.872899459
6.942108237, -9.278283315, 1.807365143
0.53515157, -9.30054677, -0.512197371
0.197085679, -9.291384679, -0.42087647
0.87225538, -9.251356097, -0.259235186
0.538417796, -9.2838503, -0.169790966
0.201001992, -9.277449445, -0.083249692
0.875097484, -9.221220979, 0.080348907
0.542974988, -9.300643513, 0.168312671
0.203160263, -9.287244802, 0.256233156
0.876052855, -9.221021062, 0.418665697
0.545851037, -9.28307251, 0.508505074
0.206579881, -9.222709526, 0.592028524
0.878751798, -9.198275947, 0.755620205
0.547930379, -9.263252945, 0.846781806
0.207248304, -9.195201772, 0.925656889
0.884966588, -9.215754431, 1.097740176
0.54818346, -9.210262101, 1.182277102
0.211800117, -9.267908881, 1.277954842
0.556654115, -9.270732188, 1.538523241
0.214690619, -9.259951474, 1.625551578
0.55931909, -9.274531421, 1.891704072
0.216128142, -9.266121583, 1.981103233
0.560649185, -9.240224008, 2.246911881
0.217279116, -9.225673061, 2.334758812
0.567398856, -9.236790321, 2.620244979
0.216501324, -9.192649082, 2.702109087
4.515732921, -9.237427548, 2.80554031
4.0807558, -9.206240338, 2.851266859
0.563441025, -9.294874712, -0.511977787
0.225832798, -9.300723022, -0.421328869
0.568177631, -9.303112301, -0.170174328
0.229389679, -9.27379038, -0.08322278
-0.107562823, -9.183368134, 0.00625135
0.571383772, -9.296938352, 0.168276535
0.231951305, -9.29856996, 0.256564051
0.574390202, -9.282350598, 0.508559672
0.234924603, -9.224027049, 0.592156614
0.576099612, -9.25755294, 0.846418278
0.235559691, -9.198502014, 0.926057434
0.914803252, -9.228806929, 1.099624158
0.576375626, -9.207546199, 1.182149906
0.240412363, -9.274147489, 1.278910781
0.584845112, -9.265042817, 1.537869499
0.242995332, -9.255310652, 1.624860163
0.587832335, -9.273750541, 1.89190363
0.244580991, -9.266392167, 1.981312325
0.589118839, -9.240399598, 2.247383708
0.245736857, -9.230777825, 2.336230569
0.595858163, -9.236926867, 2.620790003
0.245060414, -9.205368819, 2.706056343
4.591639724, -9.295493077, 1.717478202
4.161828769, -9.269263292, 1.783197638
5.011814584, -9.265400432, 2.041313668
4.583041517, -9.27197243, 2.105772606
4.160630652, -9.263133393, 2.170476487
5.020876023, -9.267073039, 2.450754232
4.567429574, -9.231867305, 2.500002022
4.150974185, -9.236026727, 2.561882073
5.016429124, -9.234224339, 2.867400154
4.571856937, -9.223393955, 2.914743421
4.143460829, -9.219309534, 2.970233665
4.275680106, -9.341453718, -0.465257821
5.388544945, -9.224553436, 3.26533857
5.848535941, -9.19365821, 3.201987969
6.368092889, -9.221280688, 3.173008439
0.592525928, -9.302070081, -0.512471909
0.594796206, -9.271392283, -0.169626666
-0.079535087, -9.200654519, 0.006262921
0.599710448, -9.292148366, 0.168222355
-0.075969692, -9.177345807, 0.341181082
0.60286532, -9.280544812, 0.508559672
0.263051596, -9.217277895, 0.591772343
-0.073177088, -9.188739585, 0.677864
0.603719853, -9.243816771, 0.84532781
0.263779189, -9.197735286, 0.926057433
-0.069316804, -9.208573825, 1.018617074
0.604491229, -9.203754996, 1.181895751
0.268835207, -9.272376631, 1.278774286
0.613527756, -9.26714254, 1.538523243
0.272053111, -9.277166199, 1.628835913
0.616410994, -9.273858912, 1.892302624
0.273066332, -9.267552955, 1.981730273
0.617141189, -9.233700563, 2.246204253
0.274803392, -9.255175832, 2.342607555
0.624583155, -9.240814616, 2.622424598
0.273756526, -9.21991715, 2.710567222
6.902909583, -9.235897139, 3.146164165
5.399566574, -9.236388107, 2.822772923
5.893496371, -9.264333129, 2.777968222
6.38553328, -9.26139243, 2.730448363
6.90534765, -9.260713708, 2.686068364
5.410439535, -9.248687162, 2.402350824
5.881923027, -9.250774666, 2.343128016
6.385939747, -9.269250168, 2.291711201
6.908587569, -9.278230415, 2.241640112
5.429818234, -9.281813661, 1.995737591
5.898107346, -9.279089782, 1.929607865
6.391639686, -9.282724217, 1.867016004
6.896515157, -9.276542815, 1.802895989
0.620263142, -9.288253597, -0.511813099
-0.051340966, -9.206854898, 0.006267006
-0.047855281, -9.18553, 0.3414783
0.291233987, -9.213435041, 0.591580237
-0.045073972, -9.206872658, 0.679188238
0.632280509, -9.244902104, 0.845600442
0.292154072, -9.201855636, 0.926558112
-0.041025081, -9.199798233, 1.017627637
0.632793188, -9.202847195, 1.182022829
0.297503409, -9.278438745, 1.279730225
0.64188791, -9.264232096, 1.538359806
0.300258658, -9.268412099, 1.627453084
0.644248025, -9.263126341, 1.890507093
0.301274909, -9.25982974, 1.980267098
0.644924616, -9.224008361, 2.244317171
0.30335531, -9.259133201, 2.343833977
0.652862815, -9.237895438, 2.622152088
0.302104379, -9.220952316, 2.711131085
3.997905507, -9.300817293, 3.094339999
4.381270483, -9.213986277, 2.998145567
4.816113678, -9.213477231, 2.943621155
5.264781131, -9.213998991, 2.895565974
0.649730355, -9.300251623, -0.512581701
0.311157286, -9.29026289, -0.420966949
0.651673153, -9.267567793, -0.169626666
0.315208634, -9.285277821, -0.083348375
-0.023124591, -9.218968517, 0.006275174
0.656009549, -9.278320185, 0.168041723
0.317557353, -9.297040021, 0.256591619
-0.019717053, -9.20562032, 0.342221272
0.659515009, -9.272686934, 0.508341222
0.319775749, -9.220476927, 0.592092598
-0.016851168, -9.219931685, 0.680144594
0.660427486, -9.239938729, 0.845327811
0.320556715, -9.205887744, 0.927058791
-0.012807219, -9.204850415, 1.018177312
0.661521656, -9.207787768, 1.182912606
0.325620015, -9.267582166, 1.278364564
0.669452618, -9.250411099, 1.536398575
0.328273397, -9.255635836, 1.625378726
0.672592863, -9.260128496, 1.890307536
0.329438649, -9.252021119, 1.978803925
0.672866687, -9.217140404, 2.243137951
0.331795218, -9.259128467, 2.344079311
0.680634977, -9.228172196, 2.619972702
0.330632938, -9.226693312, 2.713104711
4.535987873, -9.319729694, -0.289157671
4.124952878, -9.314821433, -0.186001522
4.545905081, -9.325624726, 0.089994593
4.137862832, -9.33429161, 0.184461148
4.54066407, -9.312395452, 0.468289693
4.130598267, -9.307378653, 0.556827514
5.341505271, -9.208779514, 3.253938586
5.809540684, -9.194525197, 3.19606732
6.316910573, -9.207451217, 3.161566254
6.836004391, -9.205139112, 3.12852739
5.360039788, -9.233676947, 2.816905442
5.845885704, -9.252046475, 2.768893057
6.341713347, -9.258490791, 2.72384393
0.67731571, -9.285268747, -0.511867995
0.340205512, -9.304239822, -0.421645578
0.001305996, -9.280998469, -0.333830854
0.680541731, -9.271507975, -0.169736204
0.343989893, -9.29226073, -0.083420139
0.005163393, -9.226996099, 0.006280619
0.684839871, -9.281249649, 0.168132039
0.346487842, -9.307009929, 0.256894917
0.008532888, -9.213631858, 0.34251849
0.688107894, -9.272611518, 0.508450476
0.347949322, -9.21646046, 0.591900433
0.01144887, -9.230910249, 0.680953905
0.688920209, -9.239854802, 0.845509545
0.349175235, -9.214803116, 0.928060149
0.015454587, -9.217767999, 1.019606631
0.689989989, -9.208682343, 1.183293838
0.354504884, -9.278418308, 1.280003333
0.697755095, -9.247330817, 1.536235141
0.356743594, -9.256552866, 1.625724431
0.700629467, -9.253136134, 1.889309994
0.358162066, -9.259761632, 1.980685284
0.702615832, -9.234412265, 2.247855302
0.359898735, -9.250316964, 2.342117125
0.70872225, -9.223163366, 2.619155406
0.359348793, -9.236181693, 2.716206061
6.857189212, -9.255245933, 2.678367921
5.376648268, -9.255961663, 2.399944464
5.852991983, -9.267949783, 2.342918924
6.335887861, -9.257261848, 2.283930413
6.868411565, -9.283597366, 2.237835426
5.391439415, -9.281425572, 1.992088119
5.862250626, -9.28548193, 1.927187917
6.354775422, -9.290075728, 1.864564583
6.85158476, -9.27540425, 1.798580969
0.705496557, -9.279164078, -0.511648411
0.36870933, -9.302153519, -0.421600338
0.029760451, -9.274953898, -0.333615174
0.709135634, -9.271369747, -0.169772712
0.372336298, -9.287164857, -0.083384257
0.033500417, -9.234937354, 0.006286065
0.713004573, -9.2751168, 0.168059783
0.374757965, -9.29891198, 0.256701917
0.036823819, -9.219558168, 0.342741382
0.716552589, -9.270457544, 0.508450477
0.375368532, -9.194410466, 0.590555514
0.039876264, -9.255764275, 0.682793126
0.716647714, -9.229754881, 0.844782547
0.377647838, -9.218659695, 0.928560828
0.043974732, -9.268366659, 1.025213639
0.718238604, -9.20652179, 1.183293837
0.382437861, -9.26442026, 1.278227951
0.043819603, -9.23567092, 1.364314774
0.727203694, -9.258915621, 1.538523242
0.385509186, -9.264271937, 1.627280231
0.043439878, -9.25780686, 1.718191903
0.728013625, -9.23824396, 1.886716477
0.387058479, -9.270343566, 1.983193447
0.730559835, -9.227369661, 2.246676082
0.388195306, -9.247231737, 2.34162646
0.735481992, -9.201763184, 2.613706825
0.387482096, -9.230242885, 2.714796293
4.543350348, -9.305533904, 0.846822762
4.130573806, -9.298568217, 0.928479269
4.55270672, -9.313151337, 1.229144098
4.128776496, -9.285347619, 1.302131671
4.552058765, -9.2994812, 1.614885654
4.13748946, -9.291835239, 1.68495588
4.545882083, -9.269239641, 2.00060155
0.734040086, -9.277951256, -0.511703307
0.397459342, -9.305969009, -0.421826538
0.058209196, -9.273820253, -0.333579232
0.737417854, -9.267157875, -0.169736204
0.40069781, -9.282982108, -0.083357345
0.061839338, -9.235790407, 0.006286745
0.741935005, -9.278865424, 0.168168159
0.40311159, -9.293723194, 0.256591618
0.06517942, -9.229394046, 0.343112868
0.746110627, -9.282149466, 0.509214906
0.403312202, -9.187233477, 0.590171243
0.068287069, -9.257592289, 0.68294023
0.744319717, -9.219571485, 0.844055548
0.405403186, -9.205529876, 0.927359199
0.072510422, -9.281109666, 1.026642959
0.746640753, -9.206252814, 1.183547994
0.41121004, -9.271120251, 1.279320503
0.072138578, -9.23351466, 1.364022473
0.755124616, -9.250741682, 1.537542628
0.414237523, -9.269933414, 1.628490206
0.071689626, -9.237966576, 1.714542429
0.75595281, -9.23108365, 1.885718933
0.415760401, -9.274974045, 1.98444753
0.071745733, -9.245196701, 2.072878046
0.759741935, -9.235738847, 2.249270556
0.416738101, -9.249870876, 2.342607552
0.068715033, -9.20668416, 2.42914075
0.763629557, -9.198504195, 2.613434312
0.415323272, -9.218467037, 2.711694942
4.127935206, -9.263851671, 2.064874282
4.545591835, -9.252711843, 2.397078107
4.127212022, -9.253105038, 2.459196207
4.548741575, -9.23304932, 2.808435902
4.12311451, -9.225301234, 2.861074445
5.307023304, -9.214350945, 3.250138672
5.770594788, -9.195238834, 3.190146433
6.281046469, -9.21565751, 3.157752274
6.807158761, -9.225292179, 3.128264177
5.32734009, -9.242537897, 2.81460947
5.797375976, -9.237913712, 2.759327466
6.287584019, -9.240142666, 2.71275818
6.818945523, -9.262905631, 2.674517935
5.338475083, -9.255507826, 2.395569004
5.811540404, -9.265152315, 2.337693503
6.29809052, -9.262880453, 2.280538906
6.821290296, -9.279313294, 2.23174741
0.425962085, -9.303708142, -0.421781298
0.086660599, -9.273597824, -0.333579232
0.429083345, -9.279711528, -0.083339404
0.090164291, -9.234557279, 0.006286065
0.431993464, -9.300430997, 0.256812186
0.093524869, -9.232148396, 0.343224328
0.431777295, -9.191934002, 0.590555514
0.096730306, -9.261328106, 0.683234499
0.772268698, -9.213275714, 0.843692021
0.43434583, -9.219150119, 0.928861235
0.100811094, -9.264941532, 1.024883789
0.774798455, -9.202930616, 1.183420916
0.439698443, -9.270804503, 1.279457116
0.100509321, -9.237206773, 1.364606957
0.781253399, -9.221839112, 1.533129977
0.442957279, -9.274522443, 1.629527328
0.099924514, -9.22787137, 1.712717574
0.784352792, -9.229697309, 1.885918488
0.444354052, -9.276585615, 1.985074572
0.100119829, -9.245908501, 2.073096912
0.788155844, -9.234332332, 2.249506351
0.445114363, -9.248548866, 2.342607552
0.097113167, -9.220933197, 2.432967369
0.792424363, -9.202828272, 2.61534142
0.443557037, -9.216191139, 2.71141313
0.093932648, -9.208932763, 2.814896499
5.343780602, -9.264706061, 1.984971562
5.824317067, -9.288402929, 1.924076436
6.318481283, -9.298104547, 1.8622766
6.811988141, -9.281246748, 1.795652951
0.453772197, -9.28739057, -0.421102669
0.115111187, -9.273288114, -0.333579232
0.791105517, -9.225600078, -0.169060764
0.457994329, -9.287339994, -0.083420139
0.118610569, -9.243237099, 0.006292191
0.79344933, -9.21138139, 0.167030187
0.460277539, -9.294070104, 0.25667432
0.121861451, -9.232817517, 0.343261462
0.797453707, -9.212735477, 0.505665749
0.460225139, -9.195549699, 0.59087571
0.125089306, -9.256999153, 0.682940231
0.800272332, -9.20788638, 0.843419389
0.462627733, -9.217774283, 0.928861235
