x	y	z
5.202564248, 4.969914189, -0.658713321
4.860701808, 4.005406678, -0.689340782
3.980770647, 3.800498835, -0.707867268
3.500944601, 3.103025894, -0.731328934
3.197482253, 3.049483615, -0.733619261
3.148842201, 2.58840719, -0.752307324
3.667034425, -7.144236735, -0.955150253
2.690265076, 2.562338672, -0.759051109
2.498808925, 2.565622469, -0.76883295
1.948306442, -3.568675476, -0.907862236
2.508757935, 2.217442616, -0.780337546
2.181248156, 1.924913627, -0.795688799
2.015827326, 1.918562861, -0.790572831
1.892610809, 1.942673024, -0.801018148
2.26454356, -3.325030971, -0.898273695
13.75588667, 13.08722673, -0.346664903
10.38211973, 8.522830916, -0.483150681
8.711580149, 7.698973319, -0.52651408
7.409401289, 7.042835161, -0.562044675
6.4141452, 6.554727701, -0.591931459
5.873779059, 5.186101307, -0.643516771
5.217787368, 4.953929636, -0.658713322
-1.464273855, -3.864127404, -0.963051885
3.521568827, 3.10206675, -0.733645708
3.15296062, 2.575623705, -0.751399843
2.923750712, 2.572202223, -0.756667428
2.721593951, 2.576299842, -0.765656793
2.698596009, 2.199279596, -0.777327108
2.317053818, 1.883694353, -0.786575668
2.019607454, 1.910386275, -0.789753028
1.900576028, 1.938912161, -0.80186793
10.4570028, 8.530737065, -0.48541527
2.376377645, -4.04370385, -0.911357934
6.440526063, 6.54141853, -0.592511174
6.699461366, 5.459525228, -0.626916596
5.895655152, 5.173315397, -0.644171587
5.239479807, 4.944049565, -0.65953384
1.773473235, -2.768971764, -0.899371075
4.899836472, 3.987427774, -0.691407989
5.801599542, -5.958433587, -0.910199712
4.016281794, 3.787569985, -0.710035865
3.653762223, 3.706079651, -0.720771197
3.857029166, 3.135560038, -0.729496849
3.522148578, 3.083438616, -0.731792301
3.234084552, 3.046718175, -0.737714041
2.935323466, 2.566450971, -0.757621105
2.732339486, 2.570623424, -0.766457463
2.515190718, 2.550937969, -0.769042819
2.698504734, 2.185462068, -0.775365818
2.506909667, 2.188557152, -0.775571081
2.325613577, 2.18751092, -0.777247156
2.521806964, -5.908524913, -0.942799221
2.313795541, 1.86928448, -0.783519023
2.005835238, 1.885732443, -0.782101462
-1.594219126, -4.546055306, -0.984244311
10.78454988, 10.89370593, -0.427643252
2.25222121, -2.690088362, -0.891809768
7.469946013, 7.013642227, -0.563362236
6.471801222, 6.532971714, -0.593541738
6.718504844, 5.440828973, -0.627133617
-0.092937287, -4.25712619, -0.950792837
5.266971606, 4.939532494, -0.66108374
4.689365577, 4.730384854, -0.675525652
4.902771215, 3.964875774, -0.690102409
4.446213442, 3.872875077, -0.70133329
0.596332706, -3.205977415, -0.92638851
3.867400281, 3.124333788, -0.729642045
3.254218391, 3.046895316, -0.740170885
2.978423872, 3.001961122, -0.745423843
2.739497587, 2.561559316, -0.766257309
1.676946433, -3.547452475, -0.914479347
2.705197054, 2.177172677, -0.775365817
2.332338606, 1.872468609, -0.787849241
5.576128401, -6.280717187, -0.919229876
1.906357212, 1.921086974, -0.799318697
-1.710378941, -4.477427326, -0.979240023
8.791880792, 7.626978083, -0.527102199
-0.17888876, -4.93048079, -0.95866155
6.496040683, 6.517326615, -0.593928215
6.760806675, 5.440826571, -0.6295212
5.95063478, 5.157277862, -0.646708958
4.703855777, 4.715975797, -0.675525652
4.926535289, 3.959156064, -0.691734326
-0.255588608, -4.450113032, -0.956895798
3.547728152, 3.067584842, -0.733182399
3.266439426, 3.03958539, -0.740826059
2.98901124, 2.994203197, -0.74577104
2.751649666, 2.557144591, -0.767458286
2.514218324, 2.518849266, -0.764005451
0.481213869, -3.802728132, -0.933122362
2.335804665, 1.863495083, -0.787085109
2.184968373, 1.88100991, -0.788565566
2.035694963, 1.89040827, -0.789206456
1.901400252, 1.904370479, -0.794786777
2.286109835, -7.181838637, -0.969378832
10.86180275, 10.83791962, -0.428061557
8.828101032, 7.611058507, -0.527871278
7.542124429, 6.994834374, -0.565558131
6.519538227, 6.500889532, -0.594250259
6.782140688, 5.423796722, -0.629955301
5.296450357, 4.906445277, -0.660992603
4.943319092, 3.947745218, -0.692387116
4.462365601, 3.839044497, -0.700152165
4.055338309, 3.754487596, -0.710801306
3.697543748, 3.682079875, -0.722691779
0.263884648, -3.701593554, -0.943298227
2.747246254, 2.537389531, -0.764055395
2.543412292, 2.532509998, -0.770512074
2.707808172, 2.152031752, -0.772314895
2.529165033, 2.167292441, -0.776252004
2.199769008, 2.188963889, -0.788832791
0.678557918, -3.160076894, -0.91819037
3.122153249, -5.453159028, -0.922180426
10.91061735, 10.82003058, -0.428675068
7.573093002, 6.980459906, -0.566271836
2.421100394, -1.842750755, -0.86435599
5.308547692, 4.887474811, -0.660627883
4.73623852, 4.690525235, -0.676030146
4.959300519, 3.935650512, -0.692931127
3.564229873, 3.043833997, -0.732719033
2.13816494, -2.613644301, -0.889482554
3.19441075, 2.528787992, -0.751944332
1.725433448, -3.013550279, -0.914699848
2.751409048, 2.525636495, -0.763054515
2.723588667, 2.15097283, -0.77492993
3.965520383, -2.935700117, -0.869719017
2.056471346, 1.886334969, -0.79275901
10.94732129, 10.79001465, -0.428814483
8.881480767, 7.562575734, -0.528278437
6.580633046, 6.481772242, -0.596182581
6.837992268, 5.400005965, -0.632053444
2.957107386, -5.060108857, -0.916207699
5.320578351, 4.868476209, -0.660263221
4.755570165, 4.680857967, -0.676736461
4.98227967, 3.929034593, -0.694454265
4.080494679, 3.731541851, -0.711183969
3.716535958, 3.655849497, -0.722005848
3.900009061, 3.072353877, -0.728625666
3.577317805, 3.036081123, -0.733491271
3.308115198, 3.022034856, -0.743938077
1.975151027, -7.360828593, -0.980222049
2.758421003, 2.516522981, -0.762854362
2.573541741, 2.531253954, -0.774919778
2.550593002, 2.158653894, -0.778748723
2.371816216, 2.16336635, -0.781504717
2.351333836, 1.840725807, -0.786575667
2.206608783, 1.864555723, -0.790148545
2.072911979, 1.88973773, -0.79685808
3.390606753, -2.976323053, -0.876643175
3.069026744, -3.361631788, -0.884463543
10.98679951, 10.76267287, -0.429065478
10.69005479, 8.397930972, -0.488973936
8.921416875, 7.549488938, -0.529273775
7.626118313, 6.943271907, -0.567040379
6.606192579, 6.467137715, -0.596697864
6.030979973, 5.098665439, -0.64859157
3.532411606, -2.718920824, -0.86615246
4.77630901, 4.672507749, -0.677644538
4.50813197, 3.806780768, -0.701805717
4.095593776, 3.722340745, -0.711821798
2.199389324, -2.744639066, -0.894026943
3.913311983, 3.063423665, -0.729351652
3.590391786, 3.028276933, -0.734263568
1.511148637, -2.746699871, -0.89059002
2.758251801, -1.95275684, -0.85904438
-0.108414413, -3.422511218, -0.936570038
1.859600983, -3.45520656, -0.914479347
2.543042708, 2.13890778, -0.774436209
2.360786345, 1.836472177, -0.787849241
2.213057418, 1.858397475, -0.790412356
2.042344146, 1.850429672, -0.782921264
1.93217135, 1.888267507, -0.79790249
0.185430197, -4.044256607, -0.94353208
1.246910873, -2.830444763, -0.913466602
1.998771711, -2.376291648, -0.882118592
7.65404731, 6.925872376, -0.567534501
6.626717713, 6.447535535, -0.596762237
6.055750778, 5.087831931, -0.649573795
5.368820811, 4.852431621, -0.662542503
4.803461359, 4.670315917, -0.679460751
5.022764344, 3.911215782, -0.696739029
4.519029047, 3.792293578, -0.701687639
3.744581333, 3.638498889, -0.723103349
3.918006238, 3.047758507, -0.728480469
3.036000988, 2.949374339, -0.746118237
3.00857655, 2.51857865, -0.762389654
2.794189623, 2.517914858, -0.768459165
1.519101949, -2.741209446, -0.890316734
2.563042984, 2.14233849, -0.778521749
2.368442797, 2.133814357, -0.776064482
2.227856046, 2.163154936, -0.789325543
2.372530177, 1.833951977, -0.789887005
0.179995603, -6.250462893, -0.977524966
2.075175445, 1.868615138, -0.793305527
6.647901892, 6.428561856, -0.596891102
6.918938612, 5.361278419, -0.634947488
5.037098891, 3.897612503, -0.697065424
4.120570862, 3.699128389, -0.71220452
3.923424002, 3.032698361, -0.727754425
3.610423457, 3.007454412, -0.73457244
3.33505475, 2.990801112, -0.743774284
1.6172405, -2.902846248, -0.908868661
1.216307431, -3.191638485, -0.934195628
3.014025364, 2.50745326, -0.761817391
2.790953613, 2.499526065, -0.765456583
2.591103073, 2.50202708, -0.773240655
2.755965721, 2.12215183, -0.776673308
1.931716851, -2.306454801, -0.88854101
-2.014375637, -4.161605644, -0.944610262
2.244943008, 2.166404849, -0.793020853
2.365875135, 1.817239555, -0.785811477
2.841430937, -2.120498732, -0.863108601
2.075163928, 1.857107905, -0.791119348
6.675732476, -6.262019949, -0.928280162
8.92222779, -6.755703242, -0.919110886
7.31838272, -5.14011296, -0.906990277
11.15815966, 10.73108181, -0.431882036
9.040474447, 7.50854601, -0.53221443
7.706822345, 6.888093062, -0.568303044
6.940886273, 5.344285273, -0.635453948
6.102961976, 5.063943187, -0.651292673
5.409636417, 4.829345529, -0.663910072
4.83561523, 4.644199995, -0.679965245
4.544506659, 3.766395106, -0.70204193
4.129679719, 3.684488424, -0.711821798
3.771123916, 3.619569554, -0.72392643
3.230483621, 2.477695403, -0.751399844
3.022460482, 2.498819995, -0.762008184
2.795681571, 2.488346071, -0.764655913
2.593828955, 2.4893269, -0.7717714
2.750836852, 2.104790512, -0.773404469
2.570131571, 2.121611584, -0.776705953
2.37568427, 2.11407434, -0.774172213
2.377588942, 1.814666187, -0.787849242
2.086601805, 1.855846903, -0.793305525
1.328991494, -5.218407254, -0.949226308
2.740003066, -2.84478347, -0.881929566
10.80341302, 8.274621972, -0.489477178
9.062697512, 7.480138729, -0.53216919
4.14951968, -3.822015854, -0.881919413
6.68938638, 6.389718112, -0.597084281
6.954873301, 5.321147505, -0.635236868
5.41995806, 4.808760914, -0.663363021
4.846242013, 4.62590829, -0.679460751
5.050650818, 3.858786558, -0.695651066
4.137995682, 3.669169188, -0.711311581
3.768592902, 3.594992038, -0.721319918
3.955329038, 3.018772351, -0.730222891
2.81989739, -5.222205679, -0.927791565
2.76876967, -4.028740359, -0.902224331
3.077271066, 2.934900558, -0.749590149
4.778683509, -5.161604328, -0.904702547
2.798899468, 2.475862367, -0.763454879
2.747958321, 2.089252976, -0.770789434
2.376210604, 1.802104264, -0.785556786
2.248381984, 1.841489986, -0.794897308
2.108862513, 1.864089337, -0.799590775
11.34699805, 10.7794554, -0.436622781
7.754930012, 6.845961598, -0.568742211
4.858245956, 4.608964152, -0.679158019
5.055339434, 3.837863524, -0.69467188
4.16485975, 3.670227378, -0.713990453
1.447516387, -5.541659518, -0.950969686
3.971667308, 3.0120041, -0.731529724
3.35947807, 2.95737203, -0.743119109
3.08769024, 2.926800902, -0.749937346
3.244057717, 2.456639321, -0.75103685
2.799859623, 2.461441714, -0.761653329
-0.971180853, -3.603740154, -0.948718019
2.228585734, 1.813881157, -0.785927346
2.096504435, 1.841739151, -0.79275901
2.068091479, -2.129205517, -0.876644697
-1.917374524, -4.363891173, -0.973835316
10.90180636, 8.244345173, -0.491633942
9.121587452, 7.435119987, -0.532938268
7.808171439, 6.850453594, -0.571102853
5.451608954, 4.777382993, -0.663636547
5.070264473, 3.824730479, -0.695107054
4.575127528, 3.72127607, -0.701451368
8.933355519, -6.721108103, -0.918128662
3.801394311, 3.581990349, -0.723377709
3.64168987, 2.958561414, -0.733491271
7.251121494, -7.138690595, -0.931589286
3.02551159, 2.454815206, -0.757048899
2.808135742, 2.453485019, -0.761853482
2.623746585, 2.47205342, -0.77387032
2.772433882, 2.081141065, -0.774058271
2.605440876, 2.110741016, -0.781472417
-1.923127032, -6.518431115, -0.997395288
2.262186164, 2.130055614, -0.789818234
2.381030801, 1.782853466, -0.783519023
2.251389267, 1.820987048, -0.791995277
1.967997208, 1.853697767, -0.798468974
2.221025581, -2.937261638, -0.896459726
11.43843797, 10.73356885, -0.437598807
9.149013223, 7.410873407, -0.533209708
7.832914323, 6.829747105, -0.571377332
6.77775763, 6.35586718, -0.599725124
7.027483148, 5.274873544, -0.637407372
6.175491022, 4.997446758, -0.652438573
5.469243679, 4.763251339, -0.664001266
5.080384114, 3.807964781, -0.694889497
4.573393952, 3.696610425, -0.699443525
4.188049626, 3.645254544, -0.714118008
3.817426757, 3.575050819, -0.724338
3.64229326, 2.940548166, -0.7317923
3.377561035, 2.936703089, -0.74311911
3.651180851, -3.448919485, -0.885342706
3.035321187, 2.447369918, -0.757621105
2.814170097, 2.44357349, -0.761453175
2.778023228, 2.072042126, -0.773840355
2.613421444, 2.103959072, -0.781926365
2.260926284, 2.115820814, -0.787108309
2.387265102, 1.776117381, -0.783773714
2.253958079, 1.811654122, -0.790939976
2.112125083, 1.83262306, -0.794398615
0.029614406, -3.27910976, -0.931580612
2.523163186, -2.854642495, -0.887923391
1.17895584, -4.695712149, -0.940731997
3.226741174, -2.450375765, -0.869790821
11.0386716, 8.241869485, -0.495516112
9.175597042, 7.385901492, -0.533435908
7.869677426, 6.819415612, -0.572530205
4.905556367, 4.568801037, -0.679864334
1.37047079, -3.689204372, -0.917203041
4.587036126, 3.68442759, -0.699797874
3.827651864, 3.562647222, -0.72420079
3.387301346, 2.926972, -0.743282904
3.107287528, 2.891549707, -0.748201419
3.275214067, 2.433128716, -0.753033309
3.028259937, 2.426383797, -0.75399708
2.830554766, 2.442609291, -0.763855242
2.617393717, 2.435924911, -0.767573566
2.410775733, 2.07992318, -0.775118375
2.396591113, 1.771659134, -0.785047346
2.254229838, 1.800516742, -0.789093245
0.64433756, -3.03193095, -0.915449347
3.745484296, -3.785239976, -0.884143043
-1.532708977, -3.864750119, -0.968953165
11.05587883, 8.202010524, -0.495156636
-0.225628423, -3.58149185, -0.945266241
7.917043116, 6.818044813, -0.57445162
7.070935437, 5.239968202, -0.638420293
6.227838896, 4.976881781, -0.654730431
4.925391211, 4.559136326, -0.680671559
4.615392205, 3.683965811, -0.70239628
4.212594125, 3.621428134, -0.714500729
3.835655227, 3.548197031, -0.723652069
3.829439223, -6.979333583, -0.946882612
2.797007448, -5.753643303, -0.938878726
3.052584475, 2.430533822, -0.758193366
0.782690873, -3.577919993, -0.930980391
2.646387661, 2.447800412, -0.77387032
3.328606067, -5.274743848, -0.915355933
2.440749022, 2.092755546, -0.782687393
2.279559869, 2.107171138, -0.789079196
2.405912029, 1.767160444, -0.78632092
-2.157925344, -4.069061787, -0.941007162
1.48814299, -3.441532035, -0.91278049
11.57350273, 10.66170165, -0.438993139
9.258280384, 7.359299583, -0.535607484
7.958405066, 6.811253292, -0.575933868
1.81615824, -3.476040327, -0.914025399
2.730414134, -6.299167986, -0.950830821
5.530261878, 4.727594858, -0.666098217
-0.066294535, -3.417797656, -0.934987118
4.001453104, 2.939013496, -0.728625666
3.68391726, 2.918557855, -0.734726876
1.634111182, -5.877983148, -0.953739434
3.298011532, 2.418802454, -0.754848328
3.070804434, 2.429684597, -0.760863715
2.85220026, 2.430915346, -0.765656794
2.629411937, 2.417172065, -0.766734033
2.450116118, 2.087778224, -0.783633555
2.283872691, 2.098200557, -0.788340099
2.279625005, 1.798000615, -0.794105877
5.261224571, -8.11868448, -0.981151807
1.994833422, 1.833301541, -0.800168421
5.328417927, -8.112860044, -0.984380591
-1.553022491, -3.654745092, -0.966710055
11.63343708, 10.65111994, -0.440024954
9.302764164, 7.348199115, -0.536874261
7.989912811, 6.795861982, -0.576702411
6.89500146, 6.308591727, -0.603203294
6.269994961, 4.94783595, -0.655958227
5.549293229, 4.714474908, -0.66664521
5.139574059, 3.754716232, -0.69663025
4.237003639, 3.597437764, -0.714883449
3.861010554, 3.527935742, -0.724337999
3.68974852, 2.904797427, -0.734109073
3.416353857, 2.897586289, -0.743774283
3.13522313, 2.864156968, -0.748548616
3.30462211, 2.408093725, -0.754666833
3.085961086, 2.426319485, -0.762771124
2.646198975, 2.417667092, -0.769462614
2.762980688, 2.008528283, -0.762726297
2.635213321, 2.068723158, -0.780791494
2.443904795, 2.069577191, -0.779612506
2.294593306, 2.095104817, -0.789818234
2.433150008, 1.764285693, -0.791670077
2.30335058, 1.80527872, -0.800437617
2.213439585, -2.676967958, -0.882940897
1.998324221, 1.82523248, -0.799318697
1.553230325, -3.819735165, -0.920719614
-0.221542121, -3.169591197, -0.938392248
1.390556953, -2.895290071, -0.912451694
8.008436404, 6.76938321, -0.576537723
7.170496357, 5.212198622, -0.643050739
6.289850607, 4.932266258, -0.65644931
5.569818144, 4.702567043, -0.667374592
4.973770647, 4.5196327, -0.681579637
4.661610997, 3.651127571, -0.704286044
4.251052495, 3.586980309, -0.715393666
4.020212459, 2.914986455, -0.728770863
3.700199516, 2.894681379, -0.734418004
0.797479439, -3.016133659, -0.921397475
3.793664212, -4.306693129, -0.897210149
3.074825314, 2.402335836, -0.758193367
2.869310951, 2.415261521, -0.766257309
2.655775344, 2.41150903, -0.770092278
2.80156818, 2.02347127, -0.771661093
2.638475963, 2.058232597, -0.779883595
2.443551987, 2.056438909, -0.777483667
2.311776074, 2.097824793, -0.793513603
2.426782235, 1.748333764, -0.787849242
2.312683414, 1.801167104, -0.801756729
2.011015641, 1.825539261, -0.80215117
9.351615863, 7.29405177, -0.537100461
8.036047683, 6.750561923, -0.577031845
7.179176332, 5.184919472, -0.642399559
6.310456471, 4.917234352, -0.65702229
4.989089697, 4.50568597, -0.681781457
4.679059535, 3.641688041, -0.705230898
4.087774357, -2.672207711, -0.860865584
3.710622763, 2.884528282, -0.734726875
3.152007185, 2.844205798, -0.748374988
3.079854933, 2.391085072, -0.757621105
2.872950021, 2.403304035, -0.76525643
2.808555834, 2.015435571, -0.771879065
-0.193975821, -4.928928113, -0.958470816
2.446868303, 2.046439332, -0.776537563
2.311723858, 2.084880637, -0.791296371
2.335632831, -4.0594482, -0.910022731
2.308281792, 1.786388879, -0.798327019
2.159522671, 1.805157047, -0.799590775
2.615340855, -4.510191716, -0.919020463
0.081767013, -3.70233148, -0.941327341
9.385003157, 7.27389496, -0.53773382
8.056720153, 6.725875968, -0.577031845
7.201532191, 5.167521682, -0.642978379
6.33654469, 4.906393277, -0.658168189
5.619218235, 4.68552178, -0.669836204
5.190882654, 3.719412533, -0.698915015
4.260790895, 3.550669605, -0.713352624
3.764375902, -5.475390263, -0.920238499
3.720236964, 2.873734696, -0.73488137
3.41861625, 2.845823802, -0.73853295
3.159251944, 2.83320736, -0.748027792
3.330645887, 2.380435859, -0.755574313
3.082512903, 2.378027234, -0.756476694
2.674889194, 2.399085053, -0.771351663
2.822672611, 2.012475408, -0.774058271
2.651055559, 2.042004505, -0.779883596
2.46135462, 2.045754229, -0.779139424
2.454801471, 1.745739787, -0.793453092
2.283166488, 1.755778587, -0.787774134
2.153211818, 1.788688501, -0.795218419
2.015038709, 1.806763177, -0.7993187
1.692156677, -2.829520201, -0.901745486
2.900989072, -2.016209495, -0.860033658
4.089372932, -3.860441074, -0.879139273
9.407275529, 7.245067741, -0.53773382
8.081159765, 6.704314678, -0.577306325
6.988276535, 6.238124307, -0.604620334
7.241715748, 5.162772823, -0.645148882
1.252983065, -3.293510962, -0.928200001
5.027778968, 4.484922633, -0.683294939
0.284839874, -4.235886742, -0.947959886
4.69816708, 3.610488904, -0.704758471
4.271663899, 3.537581035, -0.713352624
3.888485907, 3.466447673, -0.721457128
4.042033071, 2.874421597, -0.727899623
3.43493219, 2.841610304, -0.740170885
3.337131507, 2.369636921, -0.755392817
3.100700897, 2.376920246, -0.759147043
2.893684837, 2.390622898, -0.766857826
2.684426441, 2.392819134, -0.771981327
1.960671642, -5.734469652, -0.947406917
2.466121193, 2.036955896, -0.778666344
2.466463861, 1.742664484, -0.795490855
2.293907318, 1.752865256, -0.789620865
2.128164615, -2.634236551, -0.892029756
2.020572243, 1.800572554, -0.799318698
-1.843107737, -3.211992811, -0.941327341
0.140398206, -4.441540223, -0.953957348
2.116971906, -2.474373115, -0.890664925
11.93075274, 10.59153653, -0.445072455
9.442151829, 7.225886362, -0.538457659
6.376823565, 4.875289978, -0.659232251
5.05714877, 4.483336437, -0.685413825
5.203056418, 3.680029649, -0.697500598
4.275604762, 3.518786581, -0.71220452
3.901326635, 3.456472269, -0.721868639
4.067802217, 2.873996741, -0.730948878
3.735442987, 2.849056116, -0.734418004
3.439823709, 2.827926273, -0.739351917
3.181737069, 2.818340083, -0.74924301
3.104074175, 2.364421996, -0.758193367
2.834967674, 1.995117921, -0.77405827
2.644930572, 2.011550228, -0.774436208
2.473860948, 2.030613198, -0.779139425
2.335894164, 2.068012716, -0.793020851
2.484462381, 1.743978547, -0.799566381
2.302347063, 1.74815269, -0.790676165
2.162659133, 1.774222741, -0.794671903
2.027522756, 1.795636793, -0.799885182
-0.353812523, -4.24341594, -0.950792838
2.412724863, -2.500192981, -0.883187301
12.01191359, 10.59787009, -0.446885092
9.497673438, 7.222280772, -0.540357795
8.132185152, 6.662829869, -0.578019972
7.042140399, 6.208987115, -0.605972943
0.273616405, -5.472685279, -0.96589153
5.670582065, 4.640543101, -0.670839112
5.222455214, 3.669764823, -0.69858862
4.723396418, 3.583994556, -0.705230898
4.281005833, 3.501257344, -0.711311582
3.91414266, 3.446450586, -0.722280208
4.084698089, 2.867187602, -0.732400905
2.273894239, -3.127034735, -0.901087911
3.451539369, 2.819856452, -0.740007092
3.195542884, 2.813120588, -0.75045817
-0.838344192, -6.710397195, -0.992458473
5.60059683, -6.154469925, -0.910743665
2.861071695, 2.000392028, -0.779506315
2.387926576, -1.700971761, -0.865881409
5.912763052, -8.701132452, -0.963134568
6.857758284, -5.900171407, -0.917483912
2.489801043, 1.736348161, -0.799566381
2.306159703, 1.739919038, -0.790148546
2.156908613, 1.758461906, -0.79057283
2.048859987, 1.803348125, -0.806116606
0.362926705, -5.825797984, -0.969150474
2.101032806, -3.021888997, -0.895986701
2.382493946, -4.68717694, -0.926832309
2.853655816, -5.691468473, -0.934377444
12.03084252, 10.5491051, -0.446383131
11.52864051, 8.069002443, -0.506156137
-2.401128592, -5.474758582, -0.992572595
6.424913212, 4.849881149, -0.661114863
5.686337466, 4.624380566, -0.671021442
5.097287255, 4.463364045, -0.687129128
5.23450471, 3.654294461, -0.698697399
4.745470111, 3.577855675, -0.706884449
4.305581608, 3.49936687, -0.713607733
3.931406717, 3.440296739, -0.723514859
3.766271293, 2.836185979, -0.737043649
3.467832789, 2.815471797, -0.741644968
3.204899653, 2.803951899, -0.750631739
3.359606643, 2.339384473, -0.755574313
2.703392468, 2.36543571, -0.771141738
2.83994207, 1.972674325, -0.772096979
0.488606875, -4.184818764, -0.940768469
2.336136293, 2.042795634, -0.788832792
2.474449663, 1.714382692, -0.79294365
2.320748051, 1.739778598, -0.793314387
3.871379639, -6.094945454, -0.928685131
-0.422293448, -6.701779417, -0.985488665
1.179743201, -3.807598176, -0.929005715
9.564178663, 7.180662156, -0.541624513
7.077847667, 6.16369412, -0.605779704
7.331558635, 5.092292842, -0.647536466
6.430194507, 4.822970646, -0.660132638
5.688880326, 4.597524411, -0.669653874
5.119212024, 4.454888904, -0.688239025
5.247324973, 3.639351091, -0.698915016
4.747682746, 3.556730887, -0.705585247
3.944932943, 3.430819308, -0.724063639
4.094081105, 2.836435874, -0.730948877
3.780492284, 2.828761419, -0.738124817
3.212000602, 2.79281383, -0.750284542
2.910740945, -3.190532508, -0.882356848
-2.888337538, -7.316738639, -1.01173103
2.913648334, 2.347556441, -0.764455759
2.716539212, 2.362263121, -0.772820861
2.869275583, 1.980027354, -0.778416682
2.675821717, 1.996440074, -0.778067801
2.355560427, 2.047061935, -0.793267256
2.318339193, 1.726888357, -0.790676166
-1.509529516, -3.308877954, -0.958002263
-0.097306997, -3.401615715, -0.930765916
11.59684575, 8.011176262, -0.506982913
7.120870599, 6.162848337, -0.607840833
6.450554998, 4.807389681, -0.660705618
5.714605237, 4.589402647, -0.671021442
5.132855192, 4.439162469, -0.688239025
5.261739979, 3.625491419, -0.69935019
4.757775761, 3.541555482, -0.705467111
3.959936516, 3.422586621, -0.724886721
3.787567313, 2.815970659, -0.737815945
3.232476216, 2.793249032, -0.753062119
3.141525111, 2.332589344, -0.760291511
2.914718299, 2.333707524, -0.762854362
2.708978678, 2.341131602, -0.768623024
2.881776453, 1.975630219, -0.780160059
2.353761103, 2.032857166, -0.79055733
2.48891367, 1.701896719, -0.794217225
2.898770508, -2.02788477, -0.861216332
2.1797618, 1.743944327, -0.793032296
2.56576541, -5.861499045, -0.939023924
11.862691, -8.434768368, -0.939489957
3.600234673, -7.175909178, -0.954914039
8.26092044, 6.60055376, -0.58136874
7.154119434, 6.15333696, -0.609064636
-0.869388168, -7.105684174, -0.991437678
0.527191919, -3.517391793, -0.936860496
1.043337653, -2.937096881, -0.92054775
4.333729359, 3.456498849, -0.712969903
3.96590985, 3.406549025, -0.724063639
4.103240786, 2.805677077, -0.729496848
2.555725543, -3.077686166, -0.893261482
2.921097733, 2.324144332, -0.76265421
1.447838971, -3.288099634, -0.913242764
2.874917675, 1.957989718, -0.776673308
2.700567419, 1.989225341, -0.781699391
2.519165108, 2.003919713, -0.783633555
2.351161723, 2.01805153, -0.787601059
2.332777055, 1.715488023, -0.791995278
2.064287097, 1.772446848, -0.803567378
12.24902592, 10.47734539, -0.449673784
8.287387585, 6.580145495, -0.581807907
7.849899395, -6.261061343, -0.919281165
7.403671483, 5.042002865, -0.649779328
6.501605748, 4.783666552, -0.662915579
5.757482443, 4.566009187, -0.672753732
5.146380331, 4.395953077, -0.686422813
-0.270185058, -4.464922903, -0.960254101
4.776216131, 3.509943559, -0.704994685
4.353640788, 3.450579749, -0.714500728
3.532286078, 2.796585798, -0.748032857
3.25779439, 2.780394742, -0.754971672
1.209452292, -2.839356732, -0.911483911
2.928214251, 2.315171606, -0.762654209
2.721061456, 2.322561479, -0.767993361
2.880911036, 1.949160274, -0.776673306
2.686224029, 1.965976011, -0.775798055
2.513105398, 1.986541025, -0.779849018
2.349968384, 2.004539012, -0.785137481
2.510531406, 1.694165868, -0.79778331
2.353605378, 1.719704353, -0.797271718
2.212310706, 1.747830133, -0.800957152
5.760250888, -4.829598012, -0.894087738
12.24150813, 10.40605065, -0.448223663
11.71642337, 7.935486062, -0.508995881
9.715264312, 7.109359792, -0.545198586
8.303616239, 6.551597058, -0.581533427
2.487557955, -6.489216019, -0.962491576
5.153016238, 4.374349029, -0.685514735
5.312183124, 3.58859565, -0.701634954
2.428306363, -3.193909072, -0.895876575
4.367323432, 3.43966141, -0.715011003
3.992779944, 3.387277012, -0.725161081
4.139242425, 2.793176196, -0.732836498
7.120459478, -7.317735764, -0.934780281
3.53232073, 2.779025958, -0.746231128
3.256545602, 2.762105603, -0.752714921
3.396726891, 2.288674461, -0.755937306
3.141436283, 2.287972958, -0.755141491
2.937614706, 2.30799289, -0.763254726
2.722954977, 2.309775161, -0.766524164
2.89659773, 1.946845676, -0.779288401
2.845272817, -7.685458989, -0.974756425
2.376807197, 2.014867808, -0.792035466
-1.83695031, -3.178631744, -0.933197623
2.053180087, 1.741138629, -0.795070018
4.613733748, -3.751268268, -0.87266643
0.496414933, -3.63851287, -0.93344397
11.78134206, 7.926838803, -0.510757257
4.819324253, -4.253091454, -0.890194956
8.32760604, 6.529171139, -0.581807906
7.233325919, 6.106543563, -0.610996958
7.448541986, 5.005938004, -0.651009271
5.808127437, 4.548401353, -0.675397675
4.066106867, -5.909101381, -0.922561887
4.787213779, 3.472990802, -0.703459269
4.383323175, 3.430525401, -0.715903942
3.81463793, 2.764062019, -0.736425847
3.533058145, 2.76209998, -0.744593251
1.831396103, -3.893777943, -0.923732965
3.14525977, 2.276022535, -0.754378551
2.971711175, 2.320072091, -0.770260716
2.901745084, 1.937407896, -0.779070484
2.534438391, 1.9782578, -0.782687393
2.374824159, 2.000697592, -0.789325541
2.511220756, 1.672297704, -0.794726664
2.215409172, 1.728305999, -0.798224401
1.37882828, -3.067848499, -0.919949222
6.425623726, -6.528184643, -0.928986477
3.153223591, -2.982572109, -0.886760676
2.940081671, -5.066593919, -0.915744334
12.43604189, 10.44065085, -0.452992302
11.80809874, 7.892322961, -0.510865082
9.801622421, 7.080618228, -0.547596362
8.353899126, 6.508501319, -0.582247132
7.25967158, 6.0907373, -0.611641047
7.471330653, 4.988046473, -0.651660393
6.561521586, 4.735289554, -0.664552621
5.826770152, 4.534230505, -0.675944726
5.175947684, 4.339452083, -0.685010241
5.341546664, 3.560895577, -0.702614081
4.005136989, 3.355716241, -0.72365207
3.540736543, 2.750642515, -0.744429457
3.264372834, 2.734483106, -0.750631739
3.414800305, 2.270511919, -0.756844786
3.164183187, 2.274957928, -0.757239635
2.134445487, -5.230943489, -0.938030232
2.719805343, -2.858713953, -0.881057849
2.723192582, 1.954799688, -0.781245443
2.668977622, -4.475220593, -0.918499698
2.402501439, 2.011445143, -0.796469874
2.516339556, 1.664585499, -0.794726665
2.352084885, 1.685608341, -0.791467655
2.072647947, 1.73589724, -0.798468975
2.815613647, -5.702660928, -0.933361064
0.089282341, -4.225966485, -0.943819332
3.472172821, -4.64037845, -0.906013876
2.969997864, -2.532124672, -0.871469308
11.83142432, 7.855506213, -0.510829141
9.847646092, 7.067988425, -0.54895356
7.287520836, 6.07610496, -0.612413999
6.580877987, 4.718621151, -0.665043704
5.846955594, 4.521206355, -0.676674049
5.193058628, 4.326736616, -0.685514736
5.350788285, 3.543393536, -0.702396522
0.980628602, -2.960645228, -0.921114234
4.023786652, 3.350385059, -0.725161081
4.169725959, 2.75823661, -0.733707738
3.542130613, 2.734341474, -0.742955316
3.43569971, 2.269238344, -0.759930222
2.973475619, 2.292223467, -0.767057979
2.731555623, 1.948132261, -0.781926365
2.526520075, 1.947248086, -0.776537564
2.524667181, 1.658981785, -0.795745546
2.211492879, 1.703526529, -0.793032296
1.237461983, -2.988959183, -0.919010172
5.509185278, -3.996206287, -0.87536228
12.58528616, 10.43496958, -0.456087721
11.92304274, 7.863738953, -0.513740768
9.882298343, 7.047023379, -0.549677399
8.427707882, 6.483299028, -0.584607715
7.308433192, 6.05562893, -0.612607237
7.536777023, 4.965154649, -0.654699156
6.600194048, 4.701878704, -0.665534846
5.364956323, 3.529146211, -0.702831697
2.050508633, -3.521116364, -0.909823526
4.02412541, 3.329815061, -0.723377709
4.940349288, -4.987561746, -0.902916672
3.434423292, 2.253292541, -0.75811526
3.192491892, 2.265726499, -0.760672981
2.957938047, 2.265812057, -0.761252964
2.763147413, 2.286158723, -0.76988241
2.89822139, 1.896723429, -0.77340447
2.723216176, 1.929607649, -0.777840825
2.531710786, 1.938896806, -0.776300993
2.360808444, 1.67003038, -0.790939977
2.211361798, 1.692641086, -0.791119347
2.089911253, 1.728648384, -0.801018148
-0.375704275, -5.902092126, -0.981926133
3.976095035, -2.924687214, -0.870066214
3.518616827, -6.418521997, -0.941441777
11.97219045, 7.843552501, -0.514819136
7.344695544, 6.047768051, -0.614088651
5.877753011, 4.487661904, -0.677038769
5.237179078, 4.309330216, -0.687835442
4.862717638, 3.437484113, -0.70830173
4.044268295, 3.325632459, -0.725161081
3.853919584, 2.721031354, -0.737507015
3.281034054, 2.697443194, -0.748722185
2.358979279, -4.712274725, -0.928915489
2.960977479, 2.253759533, -0.760252141
2.761085615, 2.270219222, -0.767363697
-0.642880869, -5.530917249, -0.981515276
2.733105194, 1.92404712, -0.778975699
2.560070198, 1.948184087, -0.783160474
2.522628117, 1.635568378, -0.791924769
2.212716187, 1.682937122, -0.789753029
2.098909019, 1.7252735, -0.80243441
0.901832495, -2.997610743, -0.92451319
-0.269997685, -3.584239178, -0.946794564
-1.791250178, -3.726003911, -0.963505836
7.577135497, 4.925339633, -0.655567357
6.648486044, 4.675050989, -0.667499295
5.370667136, 3.485878119, -0.700764548
4.444122435, 3.369476642, -0.717307212
4.055219313, 3.3138359, -0.72529829
3.864676188, 2.710897029, -0.737970382
3.556137284, 2.693286471, -0.740662266
3.290056786, 2.68798756, -0.748895812
3.198294106, 2.24046273, -0.758765572
2.977255249, 2.251756952, -0.762654209
2.768037583, 2.261737615, -0.767363697
2.91390422, 1.881551734, -0.7744941
1.191904708, -4.686364761, -0.939587528
3.449262166, -2.845305395, -0.868822808
2.4097381, 1.967712449, -0.790803678
2.37812882, 1.660483141, -0.793314387
2.10493498, 1.719432686, -0.802717652
-0.243002231, -6.275026679, -0.981695263
1.469436177, -2.971786753, -0.906758061
0.12815339, -3.149782971, -0.931027856
12.0351987, 7.779710079, -0.515466144
10.01959959, 7.006722343, -0.553703871
7.395602283, 6.013920583, -0.615248022
7.593048808, 4.902611123, -0.655639717
6.670967935, 4.660339447, -0.668317787
5.907564032, 4.453310717, -0.677312295
5.270471083, 4.282761141, -0.688743519
1.969350471, -2.963107783, -0.904373892
4.066904791, 3.302627925, -0.725572651
0.556945497, -3.213054078, -0.926388512
3.873785507, 2.699592393, -0.738124818
3.5643834, 2.682363724, -0.740662266
-1.680624389, -3.046373796, -0.951607932
3.21079279, 2.234565332, -0.760100776
2.775722563, 2.253851023, -0.767573566
2.919663111, 1.872603082, -0.774494101
2.740860528, 1.904462198, -0.777840826
2.529251911, 1.900338795, -0.770151164
2.528543229, 1.617453692, -0.790651196
2.367360761, 1.642183834, -0.788037944
2.245307782, 1.686079496, -0.797677884
-1.721040844, -4.165797365, -0.967600314
-2.217237472, -3.979180894, -0.977885036
3.274803677, -2.362441148, -0.866852313
0.813861452, -3.563006085, -0.929009564
0.272405423, -4.245506572, -0.949921179
12.07246526, 7.751388714, -0.516041329
10.0476122, 6.980509619, -0.554065791
7.613091281, 4.882523147, -0.656073818
2.913387868, -4.266536736, -0.910687853
5.279715349, 4.263446417, -0.688239026
4.072392947, 3.286402837, -0.724749569
4.208210343, 2.691819165, -0.733126949
3.885298754, 2.689944609, -0.73874262
3.583656535, 2.679686328, -0.742955316
1.558376575, -3.060974585, -0.904765778
3.202291984, 2.214097064, -0.756476695
2.798603039, 2.258218337, -0.771981328
0.035835944, -3.856206837, -0.938799108
2.756308314, 1.902683569, -0.78056452
2.419503126, 1.951064217, -0.790064581
2.557979723, 1.625246141, -0.798292752
2.37477061, 1.636555113, -0.788829434
2.220402183, 1.656747915, -0.787020335
0.167077452, -5.867267238, -0.9745556
1.632748595, -2.556570988, -0.895905404
2.352551217, -3.513838478, -0.907781212
2.864158355, -6.887781691, -0.959428671
2.700654841, -2.372875405, -0.875171805
2.423389411, -1.63809724, -0.863898661
1.138723657, -3.161758021, -0.919157734
-0.503320342, -4.677811446, -0.961224521
1.782755101, -3.684574545, -0.913964081
12.77114193, 10.26260855, -0.457063777
12.13663331, 7.74010788, -0.517766705
8.619041444, 6.422468585, -0.590975876
7.444813, 5.97842633, -0.616278586
6.713386483, 4.628937042, -0.669709258
5.30906559, 4.260304511, -0.690357912
5.428524742, 3.452838714, -0.704137277
3.891091104, 2.676332477, -0.738279312
2.567720393, -3.26331274, -0.891409664
2.491892012, -4.977915653, -0.92427181
3.201787212, 2.199260072, -0.754760021
2.802466886, 2.247175149, -0.771141738
2.93769607, 1.85882799, -0.776237477
2.749281754, 1.88540553, -0.776932928
2.558032638, 1.897518815, -0.775354888
2.420183326, 1.939389814, -0.788340099
2.41718811, 1.654872247, -0.801229049
2.230110809, 1.653365309, -0.788659939
12.81037746, 10.22961663, -0.457342637
12.17467474, 7.711927747, -0.518377772
10.10508476, 6.928895777, -0.55488011
8.658766462, 6.410848824, -0.592348332
-0.066921499, -4.264447387, -0.9523183
6.740711743, 4.617330679, -0.67101889
5.966716654, 4.412368667, -0.679409187
5.707271733, -4.936225427, -0.897512919
2.697109072, -4.85511653, -0.922142495
3.598444159, 2.656475061, -0.742627729
4.115120336, -5.163823542, -0.914476698
3.476149285, 2.190218493, -0.758296756
2.519616998, -1.884558578, -0.860589137
2.992834249, 2.206331323, -0.759651626
2.834581553, 2.258673629, -0.778068155
-2.239579265, -5.990365557, -0.99976608
2.759882372, 1.880251975, -0.778294775
1.859970634, -4.990551636, -0.938810457
2.454931985, 1.954897655, -0.797701662
1.576958544, -2.608180979, -0.90015408
2.419063647, 1.645278737, -0.800173808
2.121375842, 1.689887061, -0.801018147
2.079772361, -2.115108223, -0.876078215
-0.683335166, -5.878399926, -0.982581307
3.319144495, -2.287688991, -0.865383059
12.87928671, 10.2200917, -0.458681208
12.23295718, 7.696359277, -0.519851615
10.15106331, 6.914733224, -0.556237366
8.667133897, 6.375970735, -0.591579789
7.697396704, 4.83718971, -0.659474263
6.760613801, 4.600553348, -0.67159187
5.35382044, 4.242477679, -0.692779528
4.927630072, 3.3490695, -0.708656078
4.479295748, 3.289170271, -0.714755836
4.104797001, 3.250627213, -0.72516108
4.227777131, 2.649821126, -0.732255709
1.795303277, -2.53352257, -0.882118592
3.585099981, 2.629669334, -0.738205364
3.481185068, 2.1785001, -0.757933763
2.949046282, 1.84076765, -0.776237477
2.759185473, 1.867409, -0.776478978
2.566262119, 1.597545845, -0.796254987
2.3985242, 1.620569174, -0.791731467
2.249528473, 1.646468173, -0.791939206
2.504930745, -1.897653254, -0.859533837
-1.934980036, -7.018665317, -1.008311396
4.775494874, -4.346517947, -0.894310479
12.93883866, 10.20281333, -0.459685129
12.24125684, 7.649260701, -0.519204547
7.516765491, 5.923241063, -0.617695626
7.728276721, 4.823585444, -0.660848925
6.782127306, 4.584813922, -0.672328523
6.028263396, 4.400923609, -0.683329564
5.359776053, 4.220492842, -0.691871451
4.948580636, 3.341159458, -0.710191494
4.487763249, 3.274243319, -0.714500728
4.115529013, 3.238631111, -0.72529829
4.23504658, 2.636315122, -0.732110511
3.347490307, 2.633671338, -0.750805366
3.492028236, 2.170405214, -0.758841244
-0.1483368, -4.921673659, -0.956754142
3.030080958, 2.205222022, -0.765656793
2.823799053, 2.22189115, -0.771351663
2.950532337, 1.829140233, -0.775147846
2.576959944, 1.875038239, -0.775827969
2.406688141, 1.61535312, -0.792786764
5.593729579, -3.876979905, -0.875362279
2.14075024, 1.683954098, -0.804417101
2.767550917, -3.104826103, -0.89287886
-1.988134713, -4.277307546, -0.916507954
10.23475364, 6.880183484, -0.558499422
8.714980075, 6.329124321, -0.592183644
2.121964986, -2.067282343, -0.874945249
4.592157019, -3.780764904, -0.872956824
0.541425094, -4.190122566, -0.943383504
5.371131997, 4.202803269, -0.69166963
5.488237815, 3.396949121, -0.706422042
4.953035227, 3.322089824, -0.709364719
4.505817739, 3.266280921, -0.715776387
4.124665199, 3.225379405, -0.72516108
4.248164191, 2.626431673, -0.732981752
3.926103298, 2.630030723, -0.73874262
3.629932459, 2.628450691, -0.744101871
3.232614092, 2.162532741, -0.755713697
2.839074844, 2.219842153, -0.77366045
2.971920601, 1.829801634, -0.7792884
0.910812557, -3.107135134, -0.919829974
1.996186953, -4.316854603, -0.924137528
2.413237923, 1.609032162, -0.793314388
2.145150906, 1.676787764, -0.80413386
1.907918303, -3.029407692, -0.910040088
1.974574174, -4.043690307, -0.919388618
13.03905741, 10.15270763, -0.461023671
12.39855628, 7.642173928, -0.523877551
10.26661369, 6.85596347, -0.559087542
8.748121657, 6.312289389, -0.593116875
2.834251281, -2.445837034, -0.872489127
7.79255041, 4.797513065, -0.663815269
1.751742244, -3.11008688, -0.907330164
5.496939779, 3.379054151, -0.706204425
4.51259807, 3.25012323, -0.715266112
4.134541108, 3.212710062, -0.72516108
4.25957448, 2.615456769, -0.73356254
3.944846592, 2.625088788, -0.740750521
3.637178382, 2.616725498, -0.743938076
3.485997184, 2.137116347, -0.754666833
3.242503667, 2.154778288, -0.756476695
2.979185644, 1.821693531, -0.77972423
2.800601796, 1.85808763, -0.783288212
2.447350682, 1.900254757, -0.787601059
2.146498025, 1.667257147, -0.802717652
1.853593485, -4.39169825, -0.92623567
24.52867047, 16.28749757, -0.264147315
13.08595553, 10.1248909, -0.461581421
10.30591261, 6.836582701, -0.56008282
8.775561412, 6.291238609, -0.593665893
7.819145344, 4.780867372, -0.664828191
6.06284538, 4.341196174, -0.682691377
5.405479173, 4.176458966, -0.692779529
5.507280873, 3.362173911, -0.706204425
1.107000139, -3.00793849, -0.910538801
4.522548121, 3.23626352, -0.715266112
4.142026299, 3.198194081, -0.724749569
4.270957353, 2.604436812, -0.734143328
3.642781779, 2.603833582, -0.743446697
3.254833892, 2.148605798, -0.75781184
-1.008917095, -3.458958878, -0.949087077
2.781080595, 1.832873079, -0.776252005
2.443961081, 1.885632988, -0.784644788
2.583191812, 1.564430781, -0.795490855
2.347781607, -2.413626114, -0.886935348
2.158436045, 1.665937785, -0.805266827
0.646046855, -5.780384405, -0.965710868
24.51425062, 16.16977257, -0.263456557
12.45289994, 7.570626027, -0.524201085
7.607879183, 5.845144379, -0.619241473
7.853383749, 4.768762381, -0.666492233
6.847036694, 4.507269513, -0.673228853
5.419845374, 4.161067003, -0.69298135
4.973444117, 3.269816326, -0.707947438
4.528413769, 3.219499734, -0.714628282
2.019551688, -2.371306086, -0.884851286
4.282312807, 2.593371572, -0.734724174
3.972441347, 2.608426361, -0.742912856
3.362366738, 2.579207352, -0.7469862
3.26797757, 2.142916386, -0.759337778
2.842319306, 2.180525282, -0.76904282
2.988635699, 1.802371213, -0.779288399
2.813579899, 1.841935414, -0.783742163
-0.830228331, -7.149257852, -0.996787908
2.448196237, 1.876946768, -0.784152037
2.25489803, 1.597864328, -0.785107386
-1.505638276, -5.394475926, -0.987243881
1.687321339, -5.859846105, -0.953276126
12.56247533, 7.584553913, -0.527831604
-1.14131428, -4.118542478, -0.95427959
7.626965473, -6.556788181, -0.920831065
1.877760034, -3.86837175, -0.923103242
7.882497354, 4.753401805, -0.667722234
6.871675999, 4.493332618, -0.674292973
6.098313373, 4.310236207, -0.683694284
3.299984466, -6.583583471, -0.947182241
-1.742156744, -6.176048753, -1.003164022
4.988441005, 3.257800546, -0.708656079
4.542320508, 3.20845261, -0.715266112
4.293640842, 2.582261046, -0.735304964
3.982907856, 2.597846223, -0.743376165
-1.705203516, -3.549654376, -0.9586679
3.50046041, 2.10190415, -0.753577855
3.28029414, 2.136630499, -0.76067298
3.066754689, 2.16074067, -0.766457463
2.854438506, 2.175944089, -0.770512073
2.986615726, 1.788680659, -0.777327109
2.799622587, 1.820552449, -0.778294774
2.597723659, 1.551526267, -0.797019178
2.319568077, 1.633024287, -0.805876024
1.960826607, -3.116988721, -0.896459725
2.128125879, -2.236014512, -0.876926432
0.996117311, -3.50734224, -0.92679233
8.872299489, 6.237769066, -0.596300954
7.665067297, 5.8146373, -0.620980558
6.88710065, 4.473315391, -0.674456648
1.76389047, -3.703374199, -0.915925372
4.552142377, 3.194501872, -0.715266112
-1.715257777, -3.773362763, -0.966002497
4.304940514, 2.571105456, -0.735885751
3.991688481, 2.586151768, -0.743530659
-1.263524145, -3.57263924, -0.96325303
-0.041940795, -4.654654695, -0.951015794
3.511115658, 2.093673181, -0.754485336
3.288482221, 2.127623105, -0.76105445
4.123785628, -3.212552422, -0.867927719
2.989572733, 1.778012882, -0.776673307
2.61024071, 1.826730165, -0.775591401
2.597812501, -5.348246356, -0.929490535
2.313531668, 1.618181505, -0.802050183
2.162973418, 1.637895905, -0.801301388
10.51742707, 6.792520392, -0.567004707
8.900399967, 6.216809293, -0.596904869
7.698807875, 5.803107465, -0.622268792
5.582314808, 3.31463898, -0.710556339
-1.867165334, -6.113590199, -0.999302714
0.398906103, -4.19726076, -0.941422213
4.323020104, 2.563942661, -0.737628174
3.687413033, 2.567955244, -0.746067335
3.402487341, 2.5605875, -0.75063174
3.523445561, 2.08639874, -0.755755809
3.297471602, 2.119116423, -0.761626655
3.079954985, 2.141882844, -0.766457464
2.640563034, 1.835907655, -0.782923962
2.603861666, 1.53359475, -0.796000295
-1.163603555, -3.754015481, -0.956775632
2.313745565, 1.607782548, -0.800410577
5.080575055, -4.794204131, -0.898451809
0.558627635, -5.803361547, -0.968003977
-0.363920435, -3.276409516, -0.936499487
13.32211181, 9.984720563, -0.464453739
12.71777353, 7.519472715, -0.531426182
10.54830618, 6.76669379, -0.567547586
-1.299906738, -4.299455196, -0.96424201
0.410495845, -4.403155495, -0.949339718
6.935397144, 4.444415958, -0.676502935
6.164735221, 4.272645768, -0.686702947
5.583038389, 3.291943273, -0.709359538
5.023232022, 3.21496191, -0.709364719
4.33598109, 2.553680192, -0.738499414
3.991665108, 2.551500329, -0.740596085
3.532373233, 2.077074607, -0.756300298
3.311404563, 2.113743554, -0.76334333
2.881391359, 2.154850313, -0.772401122
2.832686099, 1.805176196, -0.782834264
2.675762859, 1.848229476, -0.791675654
2.004498397, -5.328503763, -0.945237029
2.180663611, 1.630335978, -0.804133859
1.409698665, -3.19363382, -0.919539564
-1.669438563, -4.493898203, -0.979440177
12.77956419, 7.503189185, -0.533043792
10.57575706, 6.738594869, -0.567909506
7.781503981, 5.790909835, -0.626069006
7.957441848, 4.666404421, -0.669169197
2.437988207, -2.689424881, -0.883686984
6.164691232, 4.244676759, -0.685244184
7.200263146, -5.394396652, -0.912438857
4.588704484, 3.157529897, -0.716414216
4.21370852, 3.131455471, -0.72708172
4.343795349, 2.540365713, -0.738499415
3.996971681, 2.537653307, -0.740132718
3.696596497, 2.540810995, -0.744757045
3.432363643, 2.550234094, -0.753756511
3.536181345, 2.064739955, -0.755755809
3.063958788, 2.102984335, -0.759251262
2.880925749, 2.140751916, -0.770512073
3.02352153, 1.760736124, -0.781249691
-1.327255789, -2.903709136, -0.942924167
2.642164559, 1.813073992, -0.780085531
1.217400464, -2.833870494, -0.910917428
2.321187402, 1.591923295, -0.799590776
2.177956565, 1.617919092, -0.801301388
1.470004318, -4.313250571, -0.930998589
2.751313889, -6.294392242, -0.951379542
-0.695599351, -5.539423658, -0.984119168
1.518356637, -3.636119384, -0.918337913
1.782887644, -2.56573779, -0.887584039
2.162340563, -5.207726662, -0.936228504
0.735679412, -3.045614695, -0.925362914
8.994311856, 6.160018274, -0.599375243
7.973444671, 4.642973156, -0.669313917
6.973488345, 4.40870126, -0.677566997
5.499519596, 4.063556494, -0.693485843
5.610866853, 3.262121067, -0.710338723
4.607377233, 3.149594321, -0.71781743
4.349001562, 2.525536551, -0.738063823
3.719038325, 2.539471283, -0.747705269
3.437794736, 2.537937075, -0.753235688
2.765144012, -3.121352663, -0.895187704
2.978986034, -5.594396014, -0.930166613
3.079300601, 2.099645956, -0.761453176
2.880400922, 2.126676522, -0.768623024
0.286442538, -3.697972094, -0.942805477
2.596085528, 1.497004873, -0.789377563
2.466544526, 1.5479466, -0.796480287
2.186768132, 1.614077261, -0.802717652
-0.180779884, -3.566607213, -0.940681332
7.198472087, -7.21852349, -0.933321517
2.680371116, -6.983675298, -0.962107542
3.263348129, -4.807458211, -0.908330648
0.475104497, -4.180479644, -0.939460922
1.590298139, -2.710570421, -0.892776143
-0.315618174, -5.205364654, -0.962481525
2.489964257, -1.947143157, -0.864546468
13.47626322, 9.907868654, -0.466628921
12.87552503, 7.453673658, -0.535128643
10.67779966, 6.711853996, -0.571166899
7.829756943, 5.752508118, -0.62709957
7.989378142, 4.619487758, -0.669458637
6.992045537, 4.390465959, -0.678058139
6.188149132, 4.205091884, -0.684970658
1.858399473, -2.94486166, -0.917247051
4.243225827, 3.113159023, -0.728865092
4.343015704, 2.504274371, -0.735740555
3.713749645, 2.519189045, -0.745084574
3.445564883, 2.527378235, -0.753235688
3.55645405, 2.047419365, -0.757389276
3.704988175, -3.813891419, -0.882832695
2.893218637, 2.122456258, -0.770302205
2.848354535, 1.77851259, -0.782607291
3.320345498, -2.333883603, -0.871260017
2.200216839, 1.613599722, -0.805833367
1.922884891, -3.420392067, -0.914479347
1.502421431, -4.068650379, -0.931079176
2.115101997, -2.098884509, -0.880043654
9.00334E-4, -4.649944733, -0.950014913
3.645708245, -4.459472453, -0.900453597
1.734471814, -4.743538809, -0.932171432
12.91652734, 7.424595387, -0.535883536
10.69156222, 6.674830947, -0.570804921
9.040212132, 6.110305822, -0.599924261
7.853816698, 5.733166655, -0.627614852
8.016487982, 4.60240366, -0.670543859
7.004636783, 4.368466773, -0.677976243
6.205147919, 4.188872625, -0.685426514
5.541228804, 4.042048257, -0.695604729
4.63894932, 3.129584924, -0.719730976
4.246353252, 3.095458416, -0.72776765
4.336081676, 2.482581346, -0.733272147
3.728823775, 2.512744936, -0.746558715
3.565279947, 2.037962606, -0.757933764
3.348767951, 2.080200042, -0.766013677
3.114072958, 2.095480654, -0.766857826
2.904457226, 2.117025407, -0.771561532
0.716000877, -3.298211942, -0.923115065
2.646647075, 1.780544078, -0.776537562
2.511539547, 1.829424194, -0.789818236
2.62792016, 1.493950999, -0.796254987
2.479276635, 1.53481391, -0.79753553
2.318178739, 1.558683952, -0.793578812
-1.236414076, -3.225258261, -0.94474851
1.923796683, -6.239205144, -0.958190632
0.466370025, -3.21578174, -0.923109242
5.622731486, -5.015918257, -0.896213716
-1.813057246, -6.138096793, -1.000538319
-1.332117298, -3.908568232, -0.962370963
2.335970364, -2.187716972, -0.875363219
13.01649179, 7.429020871, -0.539082697
-1.566524153, -3.655321613, -0.968129242
7.890756012, 5.723106224, -0.629160699
2.597711681, -2.518764749, -0.880848553
5.559242443, 4.029115761, -0.696311043
5.631149542, 3.204933158, -0.709141922
5.082089469, 3.143799942, -0.710782056
