x	y	z
3.606072276, 6.295609411, -0.933149937
3.114916818, 5.928586652, -0.927509312
3.411168623, 5.054273596, -0.894882392
3.044369021, 4.886282994, -0.89999023
2.685962603, 4.683561757, -0.896427323
2.410301916, 4.586334567, -0.913291801
2.642800031, 3.909904993, -0.871006755
2.392847009, 3.835204278, -0.878359848
2.154429403, 3.75095073, -0.883758093
1.923351464, 3.660228067, -0.887631565
2.188241723, 3.229382013, -0.871033478
1.980954478, 3.169731973, -0.871127279
1.763265901, 3.069174752, -0.861689414
1.597327713, 3.037471901, -0.872347601
1.832933391, 2.698019618, -0.859170849
1.682930701, 2.688163225, -0.867448557
1.521640574, 2.646992458, -0.867361972
1.371268305, 2.608703238, -0.870413329
4.883775002, 9.233391557, -1.059349345
4.825713047, 7.110828108, -0.940554212
4.247138325, 6.77905778, -0.951488859
3.638751417, 6.307712986, -0.936594251
3.128920055, 5.911123412, -0.926274662
3.419430711, 5.033145599, -0.892994773
3.053045306, 4.866876896, -0.898136824
2.696371883, 4.668465523, -0.895117034
2.426665228, 4.583270144, -0.914159765
2.649804297, 3.894461043, -0.869373288
2.410868115, 3.837819834, -0.880648726
2.166417465, 3.745171322, -0.883958244
1.940976144, 3.666407735, -0.890570074
2.172841344, 3.185564996, -0.86100905
1.98340838, 3.152099418, -0.867949637
1.771700499, 3.062068624, -0.861216332
1.597564491, 3.015428731, -0.8674205
1.838472847, 2.68839234, -0.857897275
1.677796942, 2.661771568, -0.860589137
1.541803444, 2.663123817, -0.874193738
1.381509401, 2.608721791, -0.871829537
4.867165298, 9.134075071, -1.049662876
4.890682583, 7.159192722, -0.948931586
4.262618205, 6.757596792, -0.950307792
3.635166843, 6.257070293, -0.930726174
3.155430184, 5.917228613, -0.928743963
3.434856149, 5.02263125, -0.892994773
3.061631019, 4.847463395, -0.896283417
2.699769725, 4.641410944, -0.891513634
2.437470693, 4.569720829, -0.912944603
2.675632018, 3.906596592, -0.873910692
2.420532197, 3.827086791, -0.879885786
2.164581512, 3.715649485, -0.878553594
1.954516042, 3.664749185, -0.891619533
2.187576176, 3.186125017, -0.862970342
1.983166742, 3.130368416, -0.863637122
1.774727257, 3.045705176, -0.858141389
1.619129641, 3.033598686, -0.874072082
1.842325554, 2.676367216, -0.855859513
1.69835959, 2.676157554, -0.866920879
1.537853582, 2.637606053, -0.867361972
1.402146415, 2.62816336, -0.879760411
4.860344291, 9.054231948, -1.04219632
4.912060458, 7.143335206, -0.948822807
4.269489061, 6.72269352, -0.947236961
3.650840035, 6.23989563, -0.929833177
3.17403788, 5.908392874, -0.928881173
3.441273012, 4.999029829, -0.890671503
3.070656873, 4.828876485, -0.894584446
2.716988444, 4.63821373, -0.892496396
2.44774991, 4.555281529, -0.911555817
2.661928585, 3.861126822, -0.865561811
2.426462196, 3.810534643, -0.877787643
2.18192012, 3.719131933, -0.880955661
1.965287362, 3.657874299, -0.891409664
2.200115237, 3.183412926, -0.864059973
2.004283137, 3.14233356, -0.868630561
1.783571174, 3.039408225, -0.857904878
1.620167478, 3.013251895, -0.869637674
1.853832384, 2.675471409, -0.857387834
1.708639374, 2.674185604, -0.867976178
1.535710064, 2.615455698, -0.861623295
1.409748893, 2.62300466, -0.879477171
4.893305044, 9.04890445, -1.043306159
4.923203346, 7.112701659, -0.946755658
4.283674873, 6.69952401, -0.945819623
3.661407247, 6.21413863, -0.927664581
3.183192222, 5.882075135, -0.926274662
3.465609736, 5.001460572, -0.892994772
3.087055384, 4.821929389, -0.895047812
2.731205457, 4.629855958, -0.892496395
2.461244859, 4.546884029, -0.911382246
2.672640473, 3.851326096, -0.865198818
2.433903078, 3.796461313, -0.876261706
2.188834579, 3.704828593, -0.879154111
1.975569385, 3.650107752, -0.890989868
2.204298039, 3.168636553, -0.861880768
2.000231856, 3.114863044, -0.862729223
1.797830741, 3.042286808, -0.860270227
1.616018334, 2.983553386, -0.862493343
1.866457345, 2.676116666, -0.859425598
1.715270066, 2.666497281, -0.867184688
1.530018016, 2.587547511, -0.85397167
1.403634473, 2.592522576, -0.87069657
13.68772033, 21.31212145, -1.147084084
4.892012394, 8.980555572, -1.037151265
4.933068156, 7.080436099, -0.944470894
4.292383537, 6.667980989, -0.943221217
3.686528003, 6.213112087, -0.929195348
3.193163099, 5.857496219, -0.92394251
3.483201681, 4.99405102, -0.893575561
3.101298872, 4.81160555, -0.894893318
2.744389162, 4.619758927, -0.892168809
2.479426116, 4.547093705, -0.912944605
2.692327462, 3.854394918, -0.867739764
2.43382761, 3.770831331, -0.872065419
2.199689605, 3.697253902, -0.878953958
1.979738292, 3.631153199, -0.887841491
2.221845945, 3.173051384, -0.864931633
2.007663789, 3.105440306, -0.861821326
1.804671537, 3.032581888, -0.859087552
1.631198789, 2.98964152, -0.86569596
1.866880106, 2.659297453, -0.855859512
1.70823737, 2.637743437, -0.859533836
1.541394331, 2.588626946, -0.855884563
1.419847175, 2.603359615, -0.875794974
4.898482845, 8.92712721, -1.032711673
4.947347375, 7.054688146, -0.943056535
4.317681164, 6.662280387, -0.944284207
3.694380339, 6.183041644, -0.926388922
3.214932792, 5.854618435, -0.92504001
3.496801387, 4.980911987, -0.89313997
3.111743671, 4.795437818, -0.893657714
2.76006863, 4.613857352, -0.892660189
2.505217634, 4.56104467, -0.917284478
2.709230286, 3.85335716, -0.869373289
2.452338098, 3.774047347, -0.874545032
2.214043417, 3.695530715, -0.880154991
1.988045147, 3.619920561, -0.886582107
2.234381643, 3.170208458, -0.866021264
2.006556556, 3.082941462, -0.857281836
1.804976912, 3.012029144, -0.854829933
1.643630822, 2.990568612, -0.8674205
1.861636917, 2.634603439, -0.849746221
1.701571382, 2.609865973, -0.852146795
1.553286208, 2.590485747, -0.858070741
1.430598228, 2.604034542, -0.877494422
4.92151643, 8.904219568, -1.031803654
4.972980411, 7.045161438, -0.943818104
4.329418789, 6.635696443, -0.942394442
3.711286862, 6.168278876, -0.925878647
3.233358858, 5.845594494, -0.925177162
3.514350101, 4.973392197, -0.893720758
3.123739427, 4.781732689, -0.892885475
2.773192724, 4.603677838, -0.892332602
2.517768544, 4.550752538, -0.916763713
2.728424388, 3.855462423, -0.871732738
2.452082702, 3.748433281, -0.870348745
2.216766925, 3.674459141, -0.876752044
1.990149248, 3.597549029, -0.882594197
2.242967785, 3.16174665, -0.865585435
2.040558396, 3.114242688, -0.867722662
1.817723083, 3.012300815, -0.85648569
1.653736899, 2.987207756, -0.867913193
1.870831957, 2.630455782, -0.850255663
1.723331597, 2.625599506, -0.859006216
1.556751635, 2.578296901, -0.855611334
1.441366633, 2.604668211, -0.879193929
4.940099902, 8.873431987, -1.029987382
4.985359142, 7.016905709, -0.94207735
4.34648536, 6.617403009, -0.941685802
3.723512278, 6.14583594, -0.924220267
3.247902954, 5.829589928, -0.924216871
3.525577487, 4.956943335, -0.892704379
3.135680629, 4.767999167, -0.892113237
2.786791985, 4.59430442, -0.892168808
2.514939256, 4.512897581, -0.910687853
2.74309268, 3.851078586, -0.87264022
2.468970125, 3.749091238, -0.872256154
2.229555519, 3.670153149, -0.877352561
2.003556489, 3.595696769, -0.883643656
2.245851749, 3.145319211, -0.862970343
2.050103065, 3.107967669, -0.867722661
1.843606219, 3.034111448, -0.864291276
1.653925546, 2.966037038, -0.863232439
1.891839516, 2.642788735, -0.85611426
1.729783461, 2.617885711, -0.858214726
1.563654929, 2.571864876, -0.855064761
1.437210683, 2.578453561, -0.871829537
4.972166153, 8.866912829, -1.030996371
4.998190241, 6.98944888, -0.940445375
4.361837512, 6.596582083, -0.940622812
3.736151363, 6.124222942, -0.9226895
3.257532012, 5.804912917, -0.92188472
3.521763133, 4.919554834, -0.887912701
3.148112317, 4.755061692, -0.891495436
2.80807287, 4.597519735, -0.89446186
2.492619929, 4.440752091, -0.897668112
2.757186478, 3.845841624, -0.873366204
2.484799964, 3.748044235, -0.873782092
2.236203639, 3.655773489, -0.875551011
2.011228767, 3.583564628, -0.882174401
2.240112437, 3.117015833, -0.857086468
2.056934808, 3.097606828, -0.866587789
1.833129455, 2.996117854, -0.855066503
1.651626846, 2.940668483, -0.857319839
1.879588128, 2.608727489, -0.846944326
1.734067304, 2.606944625, -0.856367994
1.573044679, 2.569516694, -0.855884563
1.441828004, 2.568178138, -0.869846845
4.952376094, 8.768454018, -1.021310019
5.026578499, 6.983763664, -0.941750955
4.379854052, 6.579862648, -0.940150386
3.747654639, 6.100900247, -0.920903566
3.269964372, 5.785406037, -0.920375709
3.532212507, 4.902305255, -0.886751067
3.153370758, 4.731404652, -0.888869732
2.824231814, 4.592244249, -0.895117034
2.50138558, 4.424510774, -0.895932126
2.748256995, 3.808656036, -0.866832284
2.493017625, 3.735504226, -0.872637624
2.238674192, 3.634713808, -0.872148121
2.017402302, 3.568865925, -0.880075484
2.261104704, 3.125944067, -0.861444879
2.064263465, 3.088043209, -0.865679892
1.841293565, 2.9888254, -0.854593422
1.677819956, 2.965955772, -0.866188711
1.888718076, 2.604514263, -0.847453765
1.762987573, 2.632870146, -0.866657067
1.566787014, 2.541750434, -0.848232994
1.454893037, 2.572925695, -0.872962502
4.974334769, 8.744570902, -1.020301031
5.04681414, 6.966699391, -0.941533339
4.393939844, 6.557320292, -0.938851183
3.76374558, 6.085156166, -0.920265678
3.284268048, 5.769320729, -0.919415359
3.546074232, 4.889843776, -0.886460674
3.17833026, 4.737296465, -0.891804307
2.839346022, 4.585235217, -0.89544462
2.512511315, 4.412536923, -0.895064163
2.770908536, 3.815324618, -0.870280769
2.500086879, 3.721319566, -0.871111686
2.251363857, 3.630326482, -0.872748637
2.031728053, 3.568607527, -0.881544738
2.252877437, 3.094532993, -0.854689349
2.070465633, 3.076847572, -0.864318045
1.863258654, 3.003804081, -0.860506739
1.679235012, 2.947320875, -0.862246997
1.912662369, 2.62057821, -0.854585938
1.762969829, 2.615451585, -0.862699737
1.60349225, 2.583518204, -0.863809416
1.453287415, 2.551782649, -0.867297617
4.996193532, 8.720636552, -1.019292043
5.052351616, 6.929495611, -0.938595842
4.404597003, 6.529814273, -0.936843341
3.781872637, 6.072738738, -0.920138124
3.297518607, 5.751483784, -0.918180709
3.563392648, 4.882137976, -0.887041461
3.174601152, 4.70050393, -0.886707394
2.856531626, 4.581525176, -0.896427323
2.526037174, 4.404808136, -0.895064165
2.779118695, 3.802042259, -0.869191792
2.538438141, 3.753476044, -0.880457992
2.268199157, 3.63254405, -0.874950495
2.043639542, 3.564053789, -0.881964533
2.260053299, 3.084457679, -0.853817632
2.077164488, 3.066449389, -0.863183173
1.881215227, 3.012083407, -0.864527789
1.693092979, 2.950561356, -0.864710576
1.90466355, 2.592876284, -0.847453765
1.763403453, 2.598855986, -0.859006215
1.596627215, 2.554930038, -0.855884563
1.467312589, 2.558126866, -0.870979813
5.002041275, 8.669074524, -1.015054155
5.070058332, 6.909153923, -0.937943052
4.421820046, 6.512162776, -0.936252778
3.804173952, 6.066989636, -0.92103112
3.313167158, 5.737908593, -0.917631988
3.574839409, 4.866398591, -0.886170279
3.196228405, 4.701364087, -0.888715295
2.870573948, 4.572739904, -0.896427322
2.538061214, 4.39447893, -0.894543338
2.790187589, 3.792706139, -0.869010297
2.54386505, 3.73674451, -0.878359848
2.280897201, 3.628056551, -0.875551011
2.058964916, 3.565387327, -0.883853524
2.281669797, 3.094004374, -0.858394015
2.09698691, 3.075350422, -0.867495687
1.886309598, 2.999717567, -0.86263552
1.696317917, 2.935283386, -0.861754303
1.930430618, 2.61112587, -0.855350072
1.763207827, 2.581486172, -0.855048884
1.604458175, 2.550019427, -0.855884562
1.473714761, 2.551121773, -0.870130088
5.016617741, 8.633042395, -1.012632655
5.087097824, 6.887969369, -0.937181483
4.428330298, 6.478891253, -0.933418161
3.827534589, 6.062838172, -0.922179225
3.331751106, 5.729429615, -0.917906348
3.591517176, 4.857794777, -0.88660587
3.212868964, 4.694797705, -0.889333098
2.88933293, 4.571416882, -0.897901465
2.552026674, 4.387523121, -0.894716967
2.815269168, 3.802305624, -0.873184708
2.538670239, 3.704629923, -0.872637624
2.288873142, 3.616074585, -0.874349977
2.063995118, 3.548911713, -0.88133487
2.294641339, 3.091692044, -0.859701504
2.109167836, 3.072917457, -0.868630561
1.883549644, 2.975034992, -0.857195284
1.706290309, 2.931740608, -0.862246996
1.924000899, 2.585795549, -0.848982088
1.775491199, 2.582423263, -0.857159427
1.614332998, 2.548335523, -0.856977651
1.478640851, 2.541614691, -0.868430582
5.033029787, 8.600437076, -1.010614561
5.108205579, 6.872330123, -0.937181483
4.440869513, 6.454639789, -0.931882745
3.844520898, 6.048555578, -0.921796503
3.35181586, 5.723454765, -0.918592278
3.606994386, 4.847546994, -0.886751067
3.227257253, 4.684918458, -0.889333098
2.913407003, 4.578344324, -0.901013483
2.566470865, 4.381372461, -0.895064164
2.831034413, 3.799170381, -0.874455181
2.537761543, 3.679046768, -0.868441338
2.296797134, 3.604078051, -0.873149002
2.075861473, 3.54424998, -0.881754606
2.314628928, 3.098712051, -0.863624145
2.111388887, 3.056015764, -0.865679893
1.901024174, 2.982351495, -0.86097982
1.714296561, 2.924819903, -0.861754305
1.978295781, 2.64180401, -0.869359666
1.77736754, 2.568239299, -0.854257395
1.633006188, 2.560402369, -0.862716385
1.490309975, 2.543686152, -0.87069657
5.06242253, 8.590098402, -1.011220024
5.124501924, 6.850258045, -0.936311077
4.457824084, 6.436903073, -0.931292182
3.867871111, 6.044251032, -0.922944608
3.370868995, 5.715704426, -0.919003849
3.625407841, 4.841209919, -0.887622308
3.239363242, 4.671747796, -0.888715296
2.93116468, 4.575198804, -0.902160037
2.566390585, 4.350575764, -0.890377034
2.830876515, 3.774732594, -0.870825258
2.553515519, 3.677694278, -0.869967275
2.309430637, 3.599488441, -0.873749461
2.082751537, 3.531127486, -0.880075483
2.303598612, 3.064292193, -0.855996837
2.124090888, 3.054321062, -0.867041739
1.890223713, 2.94543178, -0.851991559
1.719813217, 2.913704215, -0.860029765
1.985227249, 2.634177735, -0.868850224
1.800124635, 2.584143929, -0.861380626
1.606030345, 2.501148393, -0.844407211
1.492258744, 2.529190118, -0.867297616
5.075043238, 8.551426321, -1.008495734
5.13891751, 6.825768572, -0.935114335
4.449726427, 6.383280746, -0.92550481
3.877801739, 6.019015942, -0.920903566
3.388894301, 5.706187181, -0.919140999
3.642029939, 4.832434941, -0.888057899
3.245764188, 4.650444872, -0.886552958
2.942513709, 4.562039442, -0.901341069
2.578719977, 4.340988078, -0.890029836
2.830595468, 3.750331446, -0.867195277
2.565911206, 3.671452245, -0.870348746
2.328968535, 3.605554207, -0.876952255
2.098068965, 3.532286741, -0.881964533
2.325943666, 3.074333262, -0.860791136
2.126190958, 3.037417817, -0.86409107
1.903996728, 2.946963933, -0.854120341
1.734686594, 2.918411637, -0.862986036
1.991546324, 2.625763388, -0.868086092
1.78589365, 2.547017996, -0.850827684
1.626752058, 2.516405186, -0.851238976
1.494622457, 2.515530668, -0.864181904
6.36225732, 9.81546562, -1.070899228
5.08594328, 8.510195786, -1.005468654
5.152630605, 6.800462446, -0.933808755
4.488110704, 6.396423448, -0.929402417
3.900567198, 6.013747677, -0.921924058
3.40587629, 5.694913515, -0.919003848
3.638303138, 4.796801318, -0.883556616
3.25774445, 4.637231204, -0.885935155
2.956496109, 4.552990634, -0.90134107
2.585959132, 4.322914835, -0.887946656
2.845657014, 3.746328117, -0.868284254
2.599190054, 3.69487539, -0.877787643
2.341621653, 3.60085606, -0.877552771
2.104378937, 3.518281611, -0.880075484
2.334773366, 3.066406296, -0.860573221
2.131012176, 3.024511589, -0.862275276
1.910909751, 2.93785066, -0.853174235
1.74313433, 2.912244299, -0.862739689
1.987858122, 2.604267627, -0.862991685
1.810384898, 2.56516909, -0.858742404
1.652304634, 2.538814244, -0.860530206
1.513658278, 2.52986201, -0.87069657
6.379823686, 9.776719728, -1.068802219
5.119723642, 8.507339451, -1.006982254
5.173469925, 6.784622179, -0.933808755
4.482508511, 6.346935214, -0.924205608
3.904357443, 5.979330102, -0.918479744
3.415155689, 5.670860861, -0.916808849
3.656604435, 4.790335506, -0.884427857
3.273096994, 4.628828531, -0.886244029
2.972609775, 4.5472017, -0.901996244
2.597176774, 4.31158622, -0.88725226
2.864901028, 3.747736562, -0.870643761
2.592361259, 3.661247054, -0.871683948
2.353731217, 3.595294566, -0.877953077
2.11364981, 3.509296146, -0.87944582
2.355448542, 3.073948065, -0.864713718
2.125069825, 2.9965103, -0.856146963
1.930027215, 2.947418631, -0.857668366
1.750059519, 2.903562577, -0.861754305
2.023525792, 2.634199598, -0.874963516
1.828859602, 2.574543679, -0.863755035
1.664830517, 2.540974598, -0.862989614
1.522897459, 2.527670675, -0.871546294
6.405961004, 9.751274009, -1.068163973
5.140128012, 8.482232239, -1.005872296
5.198496732, 6.774238994, -0.934570324
4.485850212, 6.310491527, -0.920898563
3.919414683, 5.962350684, -0.917714361
3.430483057, 5.656968422, -0.916260127
3.664050904, 4.769679178, -0.882685376
3.279834848, 4.608300553, -0.884236185
2.986546252, 4.538060335, -0.901996243
2.610903062, 4.304440177, -0.887425889
2.876985218, 3.739709029, -0.870825258
2.623521683, 3.681255689, -0.878359849
2.359898, 3.580693875, -0.876151527
2.124406043, 3.502795221, -0.87944582
2.370828079, 3.074435652, -0.866892923
2.14330606, 3.002659539, -0.859778556
1.969007602, 2.98691167, -0.870914187
1.764490591, 2.907293621, -0.864464172
2.021543468, 2.614973126, -0.870633298
1.828895444, 2.557935805, -0.860061515
1.679503632, 2.546293939, -0.866542169
1.518208925, 2.502487889, -0.864465145
6.41936755, 9.706656791, -1.065428835
5.161980798, 8.459628663, -1.00506513
5.222293195, 6.762191811, -0.935114335
4.503455874, 6.294276416, -0.920544213
3.933309688, 5.943681093, -0.916693869
3.449370981, 5.648953717, -0.916671698
3.67745654, 4.756849811, -0.882394981
3.289929965, 4.592594059, -0.883155016
2.998275499, 4.525587041, -0.90134107
2.61896357, 4.28800511, -0.885689904
2.889648901, 3.732420258, -0.871188251
2.607339424, 3.634902114, -0.869204277
2.37574725, 3.580784735, -0.877953078
2.122912559, 3.476234706, -0.874408394
2.383839297, 3.071773863, -0.868200471
2.167850691, 3.017425155, -0.865906867
1.98675805, 2.993809978, -0.874698723
1.764304808, 2.886980847, -0.860029765
2.0253999, 2.603415989, -0.868850224
1.844622283, 2.563273565, -0.863755035
1.668151845, 2.512280353, -0.856704424
1.526379245, 2.498636619, -0.864748385
6.425938454, 9.652101554, -1.061599712
5.193118802, 8.452228815, -1.006074117
5.222884288, 6.720237077, -0.93152399
4.519844034, 6.276401622, -0.91995371
3.954275531, 5.935712895, -0.917331698
3.465128961, 5.635813253, -0.916260128
3.695070649, 4.749449858, -0.883121025
3.307471234, 4.587287562, -0.884081749
3.007219356, 4.508980731, -0.899866987
2.638813178, 4.290855473, -0.887946655
2.885371884, 3.703368072, -0.866469291
2.630545674, 3.643599564, -0.873209829
2.386721838, 3.5734791, -0.877953077
2.138688931, 3.478034064, -0.876507312
2.390248594, 3.060599952, -0.867110897
2.170249667, 3.001289738, -0.863183172
1.992155364, 2.982045304, -0.873042968
1.780772443, 2.893935742, -0.863725132
2.037550556, 2.602519866, -0.870633298
1.847385315, 2.55057177, -0.861380626
1.666229422, 2.49275541, -0.851785548
1.539564932, 2.502927781, -0.867864099
6.457183596, 9.634822804, -1.061873179
5.215361198, 8.430334309, -1.005367802
5.254500692, 6.718276265, -0.93348236
4.530336926, 6.250445096, -0.918182022
3.970257773, 5.920258564, -0.916821423
3.478231922, 5.618417735, -0.915162627
3.710234425, 4.738870033, -0.883266221
3.324430626, 4.581117211, -0.884853988
3.015539802, 4.491543024, -0.898229051
2.653001786, 4.284413943, -0.888293851
2.905821636, 3.706106759, -0.869191792
2.632478887, 3.622805995, -0.87015801
2.397673835, 3.56614004, -0.877953078
2.147290579, 3.468131109, -0.87566778
2.397817931, 3.050950383, -0.866457095
2.158243239, 2.965482329, -0.854785118
1.983401861, 2.949312623, -0.865237381
1.776370826, 2.867038508, -0.85731984
2.051509984, 2.603852361, -0.873180502
1.848951327, 2.536318022, -0.858478536
1.688368603, 2.509180106, -0.85916383
1.540671966, 2.487593243, -0.864181903
13.97073851, 19.19349701, -1.075105753
6.468333696, 9.58772478, -1.058864574
5.231732556, 8.399094038, -1.003551649
5.256642751, 6.678689814, -0.93021841
4.54656603, 6.232505819, -0.917591519
3.985072542, 5.903117871, -0.916055981
3.496500721, 5.609401435, -0.915436988
3.727204855, 4.73057392, -0.88384701
3.343131527, 4.57727925, -0.886089592
3.019362547, 4.467558543, -0.895280827
2.667175865, 4.277925912, -0.888641049
2.923269598, 3.704894514, -0.871006754
2.644740017, 3.616297441, -0.870539481
2.41629152, 3.570126775, -0.880755508
2.15688597, 3.4598675, -0.875247984
2.421091558, 3.061185769, -0.871469308
2.196105967, 2.998130536, -0.866133841
1.978279284, 2.922294305, -0.859087553
1.788749233, 2.867331217, -0.85904438
2.042666718, 2.576329407, -0.86604833
1.866424118, 2.543854449, -0.862963546
1.67609878, 2.474520458, -0.849052798
1.555908641, 2.495061729, -0.868430583
6.483171491, 9.546415768, -1.056494098
5.25324687, 8.376260644, -1.002744364
5.262295197, 6.643829447, -0.927607309
4.558025688, 6.208122263, -0.916056103
3.992014569, 5.874457469, -0.913504664
3.528437133, 5.622140106, -0.919278209
3.742929929, 4.7206672, -0.884137404
3.363595643, 4.575757934, -0.887788563
3.02195655, 4.441961597, -0.892005015
2.683953021, 4.275561794, -0.889856268
2.940737491, 3.703609929, -0.872821716
2.652330862, 3.603423042, -0.869395013
2.413442057, 3.542454336, -0.875751222
2.159174084, 3.439984302, -0.871889739
2.41223866, 3.030834809, -0.864931633
2.188534321, 2.968645583, -0.85955158
1.983405422, 2.910590747, -0.857431796
1.791867233, 2.852802126, -0.856334455
2.054179759, 2.574585821, -0.867576652
1.871354875, 2.534236799, -0.861644437
1.689643534, 2.478109046, -0.852058778
1.558456322, 2.482154207, -0.86559811
6.455667411, 9.443449061, -1.047285777
5.260860213, 8.331502519, -0.999313759
5.290088543, 6.636981977, -0.92891283
4.575870069, 6.192511735, -0.91581983
4.004978868, 5.85481475, -0.912356559
3.541435982, 5.60458936, -0.918180708
3.75307545, 4.70374825, -0.883121025
3.387020068, 4.578124925, -0.890259772
3.024422342, 4.416390604, -0.888729203
2.692322133, 4.259814987, -0.888293852
2.951472122, 3.693802245, -0.87264022
2.663373637, 3.595268779, -0.869395013
2.417095048, 3.524529116, -0.873149001
2.169195321, 3.432517207, -0.871679812
2.40444258, 3.002090675, -0.858829845
2.205175845, 2.972084962, -0.862502249
1.987379106, 2.897280903, -0.855303015
1.795430849, 2.839099839, -0.853870875
2.052382259, 2.556206934, -0.863501127
1.842873386, 2.479710055, -0.845023622
1.701048656, 2.478465555, -0.853971672
1.557864867, 2.464390768, -0.86106619
6.484608768, 9.42359814, -1.047285776
5.299740055, 8.336313749, -1.001836347
5.303583845, 6.612190795, -0.927716087
4.593661876, 6.176850361, -0.915583617
4.018984897, 5.836781555, -0.911463621
3.545321789, 5.5728043, -0.914751116
3.758196925, 4.680639144, -0.880942952
3.405179856, 4.573259411, -0.89134094
3.034038149, 4.401405587, -0.887582649
2.70062022, 4.244057436, -0.886731496
2.960325779, 3.681664392, -0.871914235
2.674977769, 3.587867834, -0.869585806
2.420661079, 3.506615051, -0.870546724
2.181815343, 3.429145642, -0.872519402
2.405067347, 2.984061435, -0.855778922
2.225937828, 2.98091251, -0.867041739
1.981905032, 2.870381859, -0.849153187
1.811940491, 2.845841193, -0.857566242
2.058999412, 2.548393912, -0.862991685
1.889758127, 2.526568571, -0.862963546
1.714658841, 2.481940751, -0.856977651
1.555119428, 2.443418168, -0.855401305
13.58713449, 18.19299946, -1.028326597
6.504417111, 9.390561918, -1.045827013
5.296864959, 8.275603026, -0.996488617
5.310733326, 6.57964447, -0.925431322
4.612590353, 6.162728383, -0.915583617
4.038567858, 5.826869571, -0.911846283
3.559196659, 5.55689671, -0.913927977
3.776270178, 4.673704961, -0.881814194
3.420971789, 4.565163014, -0.891804307
3.040778697, 4.382350484, -0.885617127
2.710440404, 4.23077632, -0.885689903
2.965421394, 3.664919946, -0.870099273
2.685972607, 3.579644032, -0.869585805
2.425816962, 3.491126123, -0.86854502
2.187051806, 3.41420288, -0.870420484
2.408677982, 2.969846771, -0.853817631
2.2251259, 2.960834097, -0.863183172
1.994583498, 2.869872825, -0.850808885
1.8107254, 2.824766213, -0.852885433
2.058877563, 2.532310738, -0.859680289
1.853413198, 2.462190644, -0.842913023
1.71018301, 2.459294015, -0.850965688
1.563125729, 2.439443092, -0.855684545
6.505288661, 9.33053406, -1.041359643
5.318456672, 8.253460067, -0.995782303
5.327760894, 6.559462672, -0.92488737
4.632073266, 6.149340911, -0.915701753
4.062100304, 5.82258637, -0.913122001
3.575691307, 5.545118281, -0.913790767
3.7831012, 4.652885417, -0.880071771
3.440910415, 4.562534197, -0.893348841
3.04743088, 4.363296043, -0.883651664
2.721272469, 4.219130497, -0.88499551
2.972925913, 3.651229528, -0.869010296
2.699900112, 3.575303744, -0.870539481
2.437077859, 3.484470312, -0.868745174
2.197516107, 3.407477181, -0.870420485
2.427651739, 2.974540731, -0.857304384
2.244186503, 2.967198363, -0.867041739
2.039023926, 2.914693529, -0.865946975
1.828317148, 2.833041236, -0.857073494
2.069698564, 2.529724541, -0.860953921
1.921534092, 2.536453736, -0.870350588
1.72764902, 2.468220973, -0.855884563
1.570602515, 2.434636122, -0.855684546
6.491552635, 9.250212208, -1.034612994
5.329133382, 8.214568911, -0.993058013
5.336536249, 6.529232143, -0.922929
4.63891989, 6.119274792, -0.913339562
4.057715214, 5.778440731, -0.908146862
3.59484413, 5.537445638, -0.914339547
3.792972462, 4.635896437, -0.879055332
3.455489281, 4.552743443, -0.893503278
3.050590783, 4.339399513, -0.880703439
2.733130969, 4.209109946, -0.884648312
2.979750864, 3.636766755, -0.867739765
2.708480485, 3.56387757, -0.869776541
2.451704593, 3.482585196, -0.870146418
2.202103177, 3.391698702, -0.868111698
2.43428822, 2.964062074, -0.856432724
2.252099251, 2.958749344, -0.866587789
2.042922049, 2.901274237, -0.863818195
1.846504612, 2.842047446, -0.8615079
2.088513171, 2.536800839, -0.865538887
1.879597497, 2.465346002, -0.847925652
1.735767295, 2.463695324, -0.856157849
1.582765793, 2.437044838, -0.858233776
13.72677274, 18.03140762, -1.026290741
6.436592935, 9.112312469, -1.02139316
5.350502019, 8.192349163, -0.992351697
5.355911149, 6.512061365, -0.922820221
4.650443707, 6.095540276, -0.911922223
4.074851543, 5.765154755, -0.908019307
3.608022465, 5.520586472, -0.913379256
3.812208266, 4.630348811, -0.880216967
3.469440749, 4.542120297, -0.893503277
3.067308446, 4.33485179, -0.8816862
2.74118173, 4.193286499, -0.883085956
2.975880519, 3.609397792, -0.863383857
2.717612445, 3.553212101, -0.869204278
2.456712887, 3.46705294, -0.868144657
2.209823587, 3.380834706, -0.867062239
2.473834954, 2.993442835, -0.867110896
2.247544493, 2.934044133, -0.861367377
2.051813449, 2.894992886, -0.863818195
1.850440516, 2.829069273, -0.859290725
2.092584607, 2.525913585, -0.864010566
1.931189762, 2.516962929, -0.867712367
1.743317607, 2.458358492, -0.856157849
1.591284748, 2.433782949, -0.85880026
6.450092609, 9.072232249, -1.019113878
5.364678825, 8.15927014, -0.990333723
5.363822819, 6.481048614, -0.920753014
4.650980616, 6.057615725, -0.908378965
4.088494894, 5.74696899, -0.90712637
3.617864656, 5.498733609, -0.911595825
3.828289722, 4.620916996, -0.880652558
3.483961464, 4.532238301, -0.893657714
3.073725561, 4.315778359, -0.879720677
2.75078535, 4.179920884, -0.882044365
2.989451616, 3.603278239, -0.864109841
2.703353283, 3.512186319, -0.861193175
2.467907031, 3.46029705, -0.868344867
2.219648078, 3.373222467, -0.866852313
2.46553435, 2.964828138, -0.861009052
2.225021432, 2.886255379, -0.84933773
2.058992613, 2.886311536, -0.863108602
1.865507382, 2.833092444, -0.862246997
2.095989812, 2.51428233, -0.862227495
1.912374633, 2.476670571, -0.855840317
1.745263121, 2.445168787, -0.853425153
1.597689432, 2.42728733, -0.858233777
6.454714859, 9.020007183, -1.01546691
5.379801483, 8.127839293, -0.988517451
5.38813382, 6.469909127, -0.921514641
4.663472199, 6.035460345, -0.907197899
4.105529838, 5.733591843, -0.906998757
3.628700638, 5.478524613, -0.910086815
3.841181313, 4.607630077, -0.880362164
3.499058807, 4.523091266, -0.893966644
3.086951767, 4.306328159, -0.879720677
2.762508559, 4.169819906, -0.881697226
2.998601417, 3.591825136, -0.863565352
2.727340647, 3.520949155, -0.865389461
2.480225415, 3.455097246, -0.868945384
2.242405389, 3.3851443, -0.871679813
2.489024166, 2.97446495, -0.866021264
2.258938613, 2.911733742, -0.858870657
2.068971363, 2.881559491, -0.863581682
1.871512948, 2.823316613, -0.861015207
2.110530035, 2.515989502, -0.865029448
1.925290514, 2.477646686, -0.858214727
1.756685371, 2.445271545, -0.855338046
1.604598992, 2.42157462, -0.857950534
6.488759263, 9.009050652, -1.016469818
5.402505673, 8.107984363, -0.988113926
5.407319713, 6.452586147, -0.921405804
4.681966599, 6.021124764, -0.907197899
4.120201445, 5.716946158, -0.906360927
3.636699249, 5.454179749, -0.907891815
3.857206859, 4.59809789, -0.880797755
3.509884302, 4.508436913, -0.893194347
3.099571764, 4.296037001, -0.879556883
2.775834714, 4.162144323, -0.881870795
3.015932243, 3.59013825, -0.865380314
2.757442387, 3.537339861, -0.871493157
2.494256681, 3.452236743, -0.870146418
2.251695437, 3.376621936, -0.871260018
2.479908029, 2.945164771, -0.859701505
2.260668944, 2.895577911, -0.856146963
2.071542054, 2.86653582, -0.860979821
1.876400256, 2.81191853, -0.859290726
2.135079961, 2.529454605, -0.87190687
1.922781545, 2.458811057, -0.853729772
1.768124512, 2.445327242, -0.857250938
1.618406996, 2.426214451, -0.861349431
6.48071502, 8.939918272, -1.010908347
5.416270905, 8.074846869, -0.986095951
5.42068242, 6.428366791, -0.92031784
4.696133602, 6.001258032, -0.906371123
4.126656534, 5.689024412, -0.903937164
3.645134706, 5.430660021, -0.905834025
3.868104679, 4.582462306, -0.88007177
3.509075832, 4.478982155, -0.889487534
3.123171039, 4.300875583, -0.882505108
2.789139939, 4.154426032, -0.882044364
3.014870447, 3.566599219, -0.861931887
2.77131106, 3.532725074, -0.872446888
2.504836222, 3.444568217, -0.870146418
2.270218062, 3.381874636, -0.874408394
2.495871794, 2.945733531, -0.862098683
2.26172014, 2.878673106, -0.853196295
2.071753921, 2.84838044, -0.857431795
1.883397012, 2.803734992, -0.858551629
2.127180078, 2.504466229, -0.865538888
1.981019611, 2.517330928, -0.876154651
1.773920247, 2.437557949, -0.856431136
1.626912244, 2.422830245, -0.861915972
13.45735352, 17.12593068, -0.986388233
6.520437818, 8.9368881, -1.012822967
5.434337987, 8.048297572, -0.984885143
5.448739771, 6.421559739, -0.921732199
4.71145113, 5.982921614, -0.90578056
4.14292099, 5.674735141, -0.903682056
3.65346008, 5.407140024, -0.903776292
3.884066699, 4.572835934, -0.880507361
3.511178353, 4.453453824, -0.886552959
3.132858461, 4.286494936, -0.881522405
2.805181081, 4.150745319, -0.883085955
3.016241182, 3.546097028, -0.859209386
2.788827196, 3.532681626, -0.874545032
2.515392255, 3.436867194, -0.870146418
2.267444706, 3.355451243, -0.869371026
2.509329945, 2.94326113, -0.863624144
2.277185314, 2.880124268, -0.855693014
2.086795996, 2.850635035, -0.860033657
1.875702943, 2.773857928, -0.85116095
2.113492525, 2.472934534, -0.856878394
1.98753575, 2.509729102, -0.875627031
1.792190001, 2.446848846, -0.861623296
1.627355648, 2.407498336, -0.858233775
13.4639791, 17.02657729, -0.983040419
6.49654564, 8.847008901, -1.004891137
5.450056001, 8.018422069, -0.983270692
5.43872354, 6.370037395, -0.916727554
4.737185078, 5.977778, -0.907197898
4.16618433, 5.669990898, -0.904957715
3.669474755, 5.395086737, -0.903639083
3.905148706, 4.56917157, -0.882104587
3.517455737, 4.433373018, -0.884699552
3.151840015, 4.284809777, -0.883160282
2.81790207, 4.142119525, -0.883085955
3.052683944, 3.566710948, -0.866469291
2.753245755, 3.465694187, -0.860048766
2.528248893, 3.432289377, -0.870947088
2.278828232, 3.350095893, -0.869790821
2.491658207, 2.904437614, -0.854471432
2.282978933, 2.86931393, -0.854558142
2.122042948, 2.88020254, -0.870914188
1.881477431, 2.764084498, -0.849929161
2.120438835, 2.465705412, -0.8566237
1.977191535, 2.480989676, -0.867712367
1.801971548, 2.444436153, -0.862716385
1.646603409, 2.419938305, -0.864465145
13.56280488, 17.04381741, -0.986433473
6.49583955, 8.789396497, -1.000606041
5.458338536, 7.977852266, -0.980344581
5.453706403, 6.348043311, -0.915965926
4.770980821, 5.982625229, -0.910150594
4.191226625, 5.667549478, -0.906616095
3.68600926, 5.38380374, -0.903639083
3.922374009, 4.56092014, -0.882830631
3.518711694, 4.407118745, -0.881610483
3.165557645, 4.275913094, -0.883324076
2.827258085, 4.128579644, -0.882044365
3.052702736, 3.544661152, -0.863383856
2.803708058, 3.507069077, -0.872446889
2.550436865, 3.44025802, -0.874950495
2.309533738, 3.372937781, -0.877556771
2.517138269, 2.91598822, -0.860137391
2.308206192, 2.882822885, -0.860686454
2.108877672, 2.844020791, -0.861925926
1.921174042, 2.803871081, -0.863971479
2.138117969, 2.470888441, -0.860699172
1.970310721, 2.456852554, -0.861380626
1.795706662, 2.420355404, -0.856157849
1.651852225, 2.411710177, -0.863332179
13.57069583, 16.94676268, -0.983221378
6.529906213, 8.779014038, -1.001700143
5.463037948, 7.932390325, -0.976813124
5.464054851, 6.32075358, -0.914442789
4.797392192, 5.97802788, -0.91168601
4.208594587, 5.654664538, -0.906616095
3.708130217, 5.380625751, -0.905010943
3.938290354, 4.551109556, -0.883266221
3.520458242, 4.381669026, -0.878675907
3.173946007, 4.259852584, -0.882013728
2.832086124, 4.108534469, -0.879614044
3.072579368, 3.545683457, -0.865924803
2.810147232, 3.493096894, -0.871111686
2.557463905, 3.42770542, -0.87374946
2.315986892, 3.360201128, -0.876087575
2.542712684, 2.92740946, -0.86580335
2.325594152, 2.886344845, -0.863864096
2.120498732, 2.841430937, -0.863108601
1.922613714, 2.78759204, -0.860768861
2.153943583, 2.473798225, -0.864010567
1.959665893, 2.42827738, -0.853465964
1.791613263, 2.399419297, -0.850692459
1.666320262, 2.416895401, -0.867014374
6.517421536, 8.706323439, -0.995682816
5.469777114, 7.890245466, -0.973685192
5.478854059, 6.298710122, -0.91368122
4.782020629, 5.921564142, -0.905308133
4.217003609, 5.629818312, -0.904702547
3.728572315, 5.374921195, -0.905971233
3.953533839, 4.540497991, -0.883556616
3.535748068, 4.373152413, -0.879139273
3.175163337, 4.234309849, -0.878737915
2.851414618, 4.109536121, -0.881697227
3.084735483, 3.537722723, -0.866287796
2.827644891, 3.492851548, -0.873209828
2.559731745, 3.408874699, -0.870947088
2.30845043, 3.327373599, -0.869371026
2.515073222, 2.877707885, -0.853381802
2.34363863, 2.890543789, -0.867268712
2.149628647, 2.862103488, -0.871387268
1.953264973, 2.813525653, -0.870623117
2.155150502, 2.459904822, -0.861463362
1.973187076, 2.429741381, -0.856104183
1.813991225, 2.413905645, -0.857797512
1.680835683, 2.422014742, -0.870696572
6.542304089, 8.683901189, -0.995409231
5.482571961, 7.857109689, -0.971667217
5.4902963, 6.272895465, -0.91237564
4.797034009, 5.903011956, -0.904717571
4.228285461, 5.608934292, -0.903426889
3.742776511, 5.360208427, -0.905422513
3.979181396, 4.541742606, -0.886170279
3.545406853, 4.357686025, -0.87821254
3.179225361, 4.21273742, -0.876281071
2.864572919, 4.101576283, -0.881870796
3.097520263, 3.530459698, -0.866832284
2.810447563, 3.44991223, -0.864626521
2.562498709, 3.390843787, -0.868344867
2.328724128, 3.334704528, -0.873149066
2.523890054, 2.869978083, -0.853381801
2.345723279, 2.875039461, -0.864771994
2.134378236, 2.823715615, -0.861689414
1.97188021, 2.821819801, -0.875057525
2.176116069, 2.468514628, -0.866812463
1.983684058, 2.427410819, -0.857423295
1.806302081, 2.388381197, -0.850692461
1.680020246, 2.405053108, -0.866447891
6.565304943, 8.659028158, -0.994862181
5.503791897, 7.836181617, -0.971162723
5.497032605, 6.241847623, -0.910308491
4.811349713, 5.883655, -0.904008931
4.260460302, 5.615689824, -0.906616094
3.762051713, 5.352752363, -0.906108442
3.997022617, 4.533966514, -0.887041462
3.553126504, 4.33990806, -0.8768225
3.183781744, 4.191965286, -0.87398802
2.876010151, 4.091157109, -0.881523599
3.105733572, 3.517991128, -0.866106299
2.819773978, 3.439755354, -0.864245052
2.567551515, 3.375947511, -0.866543316
2.333883603, 3.320345498, -0.871260017
2.533976661, 2.863683164, -0.853817631
2.35020681, 2.862560301, -0.863183172
2.119500829, 2.786221948, -0.852228072
1.972722118, 2.804658647, -0.871608504
2.162503259, 2.437953528, -0.858406716
2.037070782, 2.477189837, -0.87720995
1.823525154, 2.395840663, -0.855338046
1.689045837, 2.402241293, -0.867297617
6.588215087, 8.634095218, -0.994315247
5.527232787, 7.818446648, -0.971061812
5.512859788, 6.221233552, -0.90976448
4.828116285, 5.867332773, -0.903772718
4.262019708, 5.58209651, -0.903299335
3.780744311, 5.344420061, -0.906657164
4.018792468, 4.530564068, -0.888783884
3.553859947, 4.313735977, -0.873733431
3.197226505, 4.182961644, -0.874151813
2.885135049, 4.077490856, -0.880482008
3.121083665, 3.513592878, -0.867376773
2.814697216, 3.412156846, -0.859476559
2.565391326, 3.351716104, -0.862339699
2.341235888, 3.309178834, -0.870210616
2.55313434, 2.867558305, -0.857304384
2.351534551, 2.846326872, -0.86045948
2.154617055, 2.814423703, -0.862872089
1.984117464, 2.802548305, -0.872840293
2.179631143, 2.442129365, -0.862227493
2.018833854, 2.439716813, -0.866129388
1.844320565, 2.407798973, -0.861623296
1.693637741, 2.393133951, -0.86588141
6.561905998, 8.545127027, -0.9863833
5.548886352, 7.798210381, -0.970658171
5.518027729, 6.188710092, -0.907479774
4.848627402, 5.855552067, -0.904245144
4.27852117, 5.568207705, -0.903171781
3.800569971, 5.337637187, -0.907480244
4.037284524, 4.523380386, -0.889800321
3.568969247, 4.305094459, -0.874196797
3.203428479, 4.164532038, -0.872350086
2.874207837, 4.035730972, -0.873364557
3.135780462, 3.508400299, -0.86846575
2.818255665, 3.395196927, -0.857378359
2.58642414, 3.357801199, -0.8659428
2.364421634, 3.320298281, -0.875038116
2.55931486, 2.856804157, -0.856432724
2.357765529, 2.836103368, -0.859551581
2.166799434, 2.812418202, -0.864291275
1.985394636, 2.786187135, -0.869637676
2.180652137, 2.428236237, -0.85968029
2.023840508, 2.430546791, -0.865074147
1.841715066, 2.389177838, -0.856977652
1.702641048, 2.390269993, -0.866731133
6.56982323, 8.501316429, -0.983648162
5.575681509, 7.785194099, -0.971162723
5.517073537, 6.149553923, -0.904215824
4.866569258, 5.840649161, -0.904245145
4.290730051, 5.548778202, -0.90215123
3.813465846, 5.321121304, -0.906657164
4.048499059, 4.508028579, -0.889219534
3.570768289, 4.280468527, -0.871416658
3.213170625, 4.15078417, -0.871531119
2.890018175, 4.03169671, -0.874406148
3.144556581, 3.496569753, -0.867921261
2.832434401, 3.391054981, -0.858522826
2.60571735, 3.361465766, -0.868945384
2.364914071, 3.29951916, -0.871469945
2.596819254, 2.880835353, -0.866021264
2.373953992, 2.837820442, -0.862275275
2.180180469, 2.811900325, -0.866183545
1.981506313, 2.762756535, -0.864217824
2.20040969, 2.435166891, -0.864520006
2.043677432, 2.439113296, -0.870350589
1.837833659, 2.369075298, -0.851785549
1.711083904, 2.386593891, -0.867297616
14.13084303, 16.88971898, -0.997291293
6.594040094, 8.478762436, -0.983374637
5.608848033, 7.78096468, -0.972777115
5.527921047, 6.123744042, -0.902910244
4.886379307, 5.82797416, -0.904599494
4.294332405, 5.518368244, -0.899344804
3.826296019, 5.304576516, -0.905834024
4.021183226, 4.450072887, -0.880216968
3.588965466, 4.275547528, -0.872652321
3.227102635, 4.142463335, -0.871858707
2.906983265, 4.029200427, -0.875794935
3.139433349, 3.46940587, -0.863565353
2.848509214, 3.389112557, -0.8602395
2.614210087, 3.351138167, -0.868344868
2.363013346, 3.275596424, -0.867062239
2.586630841, 2.851890487, -0.859701504
2.396447118, 2.846915484, -0.867268714
2.182819918, 2.797538088, -0.863818195
2.005856606, 2.778667544, -0.871115812
2.170790716, 2.387621342, -0.850000972
2.048663893, 2.429881949, -0.869295287
1.851012655, 2.371008231, -0.854518244
1.711663433, 2.372000747, -0.863898662
14.20704138, 16.87532793, -0.999010411
8.213532731, 9.746825211, -1.046799294
6.616339022, 8.453786271, -0.982827585
5.619840064, 7.746004248, -0.970557319
5.526632083, 6.084680562, -0.899646353
4.893350465, 5.800052886, -0.902591593
4.324696185, 5.522346512, -0.902151231
3.839060495, 5.288003296, -0.905010943
3.99687813, 4.395988237, -0.871940446
3.60206567, 4.264516456, -0.87265232
3.243448059, 4.13720108, -0.872841466
2.918752355, 4.019465932, -0.875621307
3.148076617, 3.457576436, -0.863020865
2.861428974, 3.383355542, -0.86100244
2.630528816, 3.350808783, -0.870346571
2.365009195, 3.257254989, -0.86412373
2.596683901, 2.845383259, -0.860137392
2.402652133, 2.836577127, -0.866360814
2.189592239, 2.788535395, -0.8631086
2.010953734, 2.767795956, -0.869637674
2.185938135, 2.389512179, -0.853057616
2.049245024, 2.415494644, -0.866393258
1.857683778, 2.364561824, -0.854244957
1.719496093, 2.36751431, -0.864181904
14.44019444, 17.04584969, -1.011723128
8.231795321, 9.707898584, -1.045325987
6.629920337, 8.417801989, -0.98100416
5.629496821, 7.709442304, -0.968135701
5.557344133, 6.08090454, -0.901604663
4.905337898, 5.778199963, -0.901528603
4.341004156, 5.508273774, -0.902023677
3.854681328, 5.275400402, -0.904873733
4.00767443, 4.380784973, -0.871359598
3.610653267, 4.248175441, -0.871571152
3.263457882, 4.136524709, -0.87480693
2.941530052, 4.024804429, -0.878746081
3.146712251, 3.434849911, -0.859753875
2.878793749, 3.382784237, -0.863100583
2.639581873, 3.341185028, -0.869946207
2.38249066, 3.260246223, -0.866852313
2.59417966, 2.825182293, -0.856432724
2.389864187, 2.803991546, -0.858643682
2.191510734, 2.773419054, -0.86050674
2.009138475, 2.747531548, -0.865203268
2.206356718, 2.397024502, -0.858151968
2.061655936, 2.415065162, -0.868503799
1.891179258, 2.392053463, -0.866268884
1.70920663, 2.338226051, -0.855401304
14.48464582, 16.99234299, -1.011180248
8.226607013, 9.641655985, -1.040905944
6.639632026, 8.377130554, -0.978633742
5.659014201, 7.70015181, -0.969144689
5.575974073, 6.063826279, -0.901604664
4.91530254, 5.754063104, -0.900111324
4.355417562, 5.491821291, -0.901513401
3.864392594, 5.254772034, -0.903364723
4.020425748, 4.367740908, -0.871214401
3.62110096, 4.234074712, -0.87095335
3.270612565, 4.119539691, -0.873332847
2.953864162, 4.015760736, -0.87874608
3.169232639, 3.438195007, -0.863020865
2.909590018, 3.397796073, -0.869204277
2.64128415, 3.322334131, -0.867143834
2.39537814, 3.25685968, -0.867901772
2.60614646, 2.820794492, -0.857522299
2.375631355, 2.770032774, -0.850472602
2.196985376, 2.762879996, -0.859324064
2.017558383, 2.741354727, -0.865203268
2.193987944, 2.368959586, -0.850510411
2.031345026, 2.364827264, -0.852674474
1.859580632, 2.337310833, -0.848506281
1.752745615, 2.382411855, -0.873528986
14.55491982, 16.96905739, -1.012446967
8.202263165, 9.553608691, -1.034112326
6.649156718, 8.336479293, -0.976263265
5.667820512, 7.662757189, -0.96662222
5.594551555, 6.046690878, -0.901604664
4.923223416, 5.727660428, -0.898339695
4.355541031, 5.457502338, -0.898069087
3.8728351, 5.232540719, -0.901581292
4.032462287, 4.353934446, -0.870924008
3.636007038, 4.225192115, -0.871416657
3.275846693, 4.100237386, -0.871367325
2.95855278, 3.996389864, -0.876489271
3.154354442, 3.401056931, -0.856123951
2.916796864, 3.385135476, -0.868250603
2.647179883, 3.308859697, -0.865742647
2.407685648, 3.252638833, -0.868741362
2.623426637, 2.822078253, -0.860355306
2.390481244, 2.770104526, -0.852742347
2.210307941, 2.762195853, -0.861216332
2.019036832, 2.725806534, -0.862246998
2.20783804, 2.369292034, -0.853057615
2.051836517, 2.373908944, -0.858214727
1.880570363, 2.34886584, -0.854791531
1.750915294, 2.364690989, -0.868997065
14.65129585, 16.97574875, -1.015523401
8.19830598, 9.489936469, -1.029937855
6.672207775, 8.312934232, -0.975898604
5.68833258, 7.64134251, -0.966117668
5.602916143, 6.018584958, -0.899972748
4.934276596, 5.705018675, -0.89715857
4.385927363, 5.461126892, -0.900875571
3.886503149, 5.217456884, -0.901032571
4.046475309, 4.342266197, -0.871069204
3.647012537, 4.211776337, -0.870953349
3.282847428, 4.083248822, -0.869893242
2.970211202, 3.986504878, -0.876315703
3.182218012, 3.410056727, -0.860842852
2.911092105, 3.357628649, -0.863482111
2.652403661, 3.294617445, -0.864141251
2.415900811, 3.242884682, -0.868111698
2.633405701, 2.815441808, -0.860791135
2.413016264, 2.778935624, -0.857735785
2.221818902, 2.759185581, -0.862399008
2.039554292, 2.735916859, -0.8674205
2.219065035, 2.366740135, -0.854585939
2.084429363, 2.396715737, -0.868767668
1.870266116, 2.321362271, -0.846866619
1.748992802, 2.347004107, -0.864465145
14.70985865, 16.93826127, -1.0159758
8.215612831, 9.451200086, -1.028464547
6.668271681, 8.256014527, -0.971613508
5.683115831, 7.58563626, -0.961274492
5.608442597, 5.987582327, -0.897905598
4.951756071, 5.689853362, -0.897158569
4.407025308, 5.453045231, -0.901768568
3.901897473, 5.204716389, -0.900895362
4.050980671, 4.32044854, -0.869181585
3.653426538, 4.193118782, -0.869408816
3.299082259, 4.077759327, -0.870876003
2.985972674, 3.982100827, -0.877357293
3.194011207, 3.401711635, -0.861205845
2.932995449, 3.361996577, -0.8669154
2.671750075, 3.297883587, -0.867143833
2.431117239, 3.242497915, -0.87000069
2.625978058, 2.790292206, -0.855561007
2.422171183, 2.772252907, -0.857962759
2.232108595, 2.754620929, -0.863108602
2.04386679, 2.724220127, -0.865695961
2.23958723, 2.373988957, -0.859680289
2.105112184, 2.405552946, -0.874307921
1.893735791, 2.335788287, -0.854244958
1.74927995, 2.332420374, -0.861066191
8.232103307, 9.411697057, -1.026909343
6.694825434, 8.237062649, -0.971795897
5.704564656, 7.565781661, -0.960971819
5.621331897, 5.964560591, -0.897035193
4.977693654, 5.684346962, -0.898693986
4.423734372, 5.439499151, -0.901768568
3.920829813, 5.196674815, -0.901581292
4.058784796, 4.30224251, -0.86801995
3.666924868, 4.182633364, -0.869563251
3.30970846, 4.065323394, -0.870384621
2.998768584, 3.973707232, -0.877530861
3.183497475, 3.369736466, -0.855579463
2.923868339, 3.330850477, -0.861193175
2.687427146, 3.296505932, -0.868945385
2.435164352, 3.227219433, -0.867901771
2.631171087, 2.778679352, -0.854471434
2.433237209, 2.767734405, -0.858870657
2.218444519, 2.720651275, -0.854593422
2.052798985, 2.718710266, -0.865942308
2.250188809, 2.37061365, -0.860953921
2.083159984, 2.365782639, -0.862172057
1.90697387, 2.337420864, -0.856977653
1.793404975, 2.37603308, -0.87919393
8.220774125, 9.340760072, -1.021916383
6.713129845, 8.208005768, -0.97079299
5.71932955, 7.537149131, -0.95955919
5.637552392, 5.945122354, -0.896708798
4.991170498, 5.664578464, -0.897985345
4.436004489, 5.420528703, -0.900875572
3.942745122, 5.192510099, -0.902953153
4.066515494, 4.284029389, -0.866858315
3.666667843, 4.156545452, -0.86647424
3.316538723, 4.048282295, -0.86891048
3.010945685, 3.964488862, -0.877530863
3.19382058, 3.359953822, -0.855579463
2.938622389, 3.327014833, -0.862528378
2.705606337, 3.298092655, -0.871547604
2.448601694, 3.224405148, -0.869161156
2.635644093, 2.766354381, -0.853163887
2.433973711, 2.751502947, -0.856146964
2.243421571, 2.734112723, -0.860979819
2.05585284, 2.705454563, -0.863725133
2.268137246, 2.374888036, -0.865029447
2.117274008, 2.389703061, -0.87325262
1.9208501, 2.339737564, -0.859983633
1.758917539, 2.315533525, -0.858800259
23.63381837, 30.99162027, -1.087304158
8.197853963, 9.257296675, -1.015532009
6.747772532, 8.198904665, -0.972160559
5.741822439, 7.518776396, -0.959458279
5.653020449, 5.924921719, -0.896273624
4.997326908, 5.636607514, -0.895977503
4.435590188, 5.386221401, -0.897431258
3.950236491, 5.169370751, -0.901032571
4.07553938, 4.267240167, -0.865987133
3.674155812, 4.139365429, -0.865238636
3.329570429, 4.038849726, -0.869074274
3.022496339, 3.954450017, -0.877357292
3.203434149, 3.3494288, -0.855397967
2.944250929, 3.312847408, -0.861193175
2.711969435, 3.285243006, -0.87034657
2.441265505, 3.19434954, -0.863074272
2.652223505, 2.766709754, -0.855778923
2.443051242, 2.744750137, -0.856373938
2.245612878, 2.719724839, -0.85861447
2.045303597, 2.674499037, -0.855841705
2.266032285, 2.358156588, -0.861463361
2.087367102, 2.34143613, -0.857950916
1.926181319, 2.331608762, -0.859163831
1.780574679, 2.329174168, -0.865881409
23.74156915, 30.93561964, -1.087889833
15.57220429, 17.49293277, -1.06062862
8.20897804, 9.212755694, -1.013403885
6.767812985, 8.172029102, -0.971431177
