x	y	z
9.281844737, -11.89378566, 4.271723986
8.553013536, -11.85805074, 4.296477543
7.82250514, -11.75988292, 4.317051799
9.93169096, -11.85485382, 0.574925792
2.706275767, -11.65855916, 1.204535578
3.630822135, -11.68415676, 1.450740817
3.636287348, -11.68015955, 1.907996859
3.670902205, -11.73215922, 2.858420678
3.178147911, -11.65771237, 2.932826158
2.723217095, -11.67785862, 3.033788497
2.262074992, -11.66508302, 3.135025445
3.669997919, -11.68346005, 3.341483103
3.203346569, -11.71548793, 3.438901422
2.705306592, -11.6010536, 3.500561941
2.247656374, -11.61132945, 3.614935309
14.46315505, -12.06962429, 5.757822902
15.71250964, -12.13274549, 5.833612191
17.10128483, -12.20195704, 5.948266745
14.48771518, -12.08197225, 4.977162302
15.62495315, -12.06513629, 4.994505221
16.94577141, -12.11019909, 5.055433866
14.49520745, -12.08093001, 4.230640331
15.74689041, -12.16499686, 4.253164103
17.0189971, -12.1719563, 4.260025133
18.44025884, -12.1892789, 4.283524771
14.44401966, -12.03826771, 3.48966674
2.727343309, -11.59505594, 0.764436687
2.744538588, -11.66085493, 1.205637072
3.668437066, -11.67864729, 1.45144737
3.674773812, -11.67743053, 1.909383858
3.691899633, -11.67347872, 2.846870013
3.210538048, -11.63572925, 2.929759857
2.759700458, -11.67227861, 3.034524256
2.298787244, -11.66283094, 3.136300983
3.702905719, -11.66295051, 3.338850724
2.749494649, -11.62911245, 3.511557565
2.284745792, -11.61188582, 3.617273719
9.806298872, -11.80702641, -0.695081797
2.765818854, -11.66017701, -0.542710331
2.77957, -11.65652691, 0.769047881
2.786304581, -11.677543, 1.208240603
3.70545136, -11.67112309, 1.451918365
3.715673493, -11.68210813, 1.912003602
3.738075435, -11.69456963, 2.854796954
3.256152195, -11.66139208, 2.938722965
2.79730518, -11.67129951, 3.036486442
2.336836334, -11.66710048, 3.139362277
3.743680555, -11.66715198, 3.34332584
3.277246833, -11.70302404, 3.441080806
2.796563832, -11.66820662, 3.525936591
2.322609853, -11.61607511, 3.620781335
9.853049055, -11.84731988, 0.425033272
9.137818428, -11.83565169, 0.555868101
15.56915094, -12.09847424, 5.794140565
16.96685895, -12.18477036, 5.914485214
18.31791348, -12.14186998, 5.996453751
14.43428593, -12.11268927, 4.97154993
2.804147864, -11.66232085, -0.54320797
2.807990163, -11.65503122, -0.107551787
2.82446231, -11.68577554, 0.771545614
2.831005594, -11.70568988, 1.212045764
3.749128928, -11.68428542, 1.454979662
3.753310363, -11.6762976, 1.912928307
3.773337328, -11.68119224, 2.854343958
3.291913585, -11.65134684, 2.938722964
2.834472245, -11.66831521, 3.0379582
2.374354735, -11.66840352, 3.141658248
3.797311572, -11.71067282, 3.359119878
3.315234158, -11.70032027, 3.443260427
2.831442272, -11.6558428, 3.524808871
2.361472914, -11.62482619, 3.625750453
15.5388721, -12.07494594, 4.978807741
16.88092655, -12.1422701, 5.047178384
18.3506737, -12.19311062, 5.123007363
14.33770433, -12.02439406, 4.195417803
15.49795477, -12.0487907, 4.195892146
16.85989719, -12.13652332, 4.22950088
18.31287068, -12.18596889, 4.262597819
14.35805099, -12.04145775, 3.477805892
2.851267222, -11.70025078, -0.545379546
2.851087245, -11.67647529, -0.10782988
2.863386858, -11.6896559, 0.772378231
3.789246378, -11.68595255, 1.456628087
3.79247306, -11.67506507, 1.914623465
3.812783889, -11.68067168, 2.857061691
3.340998182, -11.6879109, 2.950516577
2.871647262, -11.66521207, 3.03942972
2.412294458, -11.67148077, 3.144464437
3.352970559, -11.69656876, 3.445167301
2.871087492, -11.66293812, 3.529601799
2.400218464, -11.63251239, 3.630427273
9.221436816, -11.82497937, -0.273790446
9.957761589, -11.84616141, 0.134241579
9.993576666, -11.88624229, 0.701915254
9.251270396, -11.84361601, 0.821809261
8.530726603, -11.77951471, 0.93338641
9.99531779, -11.87568376, 1.269337617
9.256022662, -11.84117808, 1.371499375
8.550727641, -11.8036642, 1.466891741
10.00885156, -11.87997424, 1.841891053
9.288818303, -11.87416039, 1.931781192
2.888826089, -11.69823648, -0.545696225
2.881132439, -11.64437669, -0.10761458
2.894365506, -11.68735957, 0.332113267
2.898755963, -11.6788787, 0.77225014
2.909971601, -11.71706778, 1.215049838
3.831573687, -11.69408978, 1.459100727
3.832895755, -11.67745688, 1.916935053
3.862330528, -11.71054508, 2.867253371
3.369011958, -11.65053313, 2.943676348
2.908360552, -11.66010945, 3.040410812
2.45087127, -11.67727257, 3.148035945
3.876978638, -11.71096455, 3.365963922
3.392591079, -11.6991643, 3.448981283
2.904997644, -11.64662777, 3.527346358
2.435895126, -11.62509371, 3.630427273
10.01443575, -11.8739791, 2.422713841
10.04034616, -11.88658886, 3.015170594
14.09517554, -11.91001564, 5.640315923
15.39667574, -12.04038962, 5.743673549
16.83348322, -12.16743857, 5.880976437
18.33835435, -12.23656541, 6.015406596
14.23969963, -12.02404338, 4.917211478
15.50709912, -12.12674195, 4.98052483
18.23950647, -12.20007333, 5.102397508
14.23959711, -12.0167205, 4.177478235
15.40161192, -12.04988161, 4.179797462
16.71307792, -12.10885309, 4.201969256
18.25011419, -12.22515729, 4.256700297
14.32554923, -12.08925585, 3.478900711
2.483813328, -11.63629369, 1.316121499
3.873986547, -11.7020767, 1.461573483
3.874923917, -11.68439904, 1.920017208
3.901010957, -11.70695727, 2.869291849
3.406103428, -11.64480628, 2.944855569
2.947207068, -11.66335091, 3.043599422
2.486483629, -11.66875296, 3.147780838
3.921763218, -11.72554812, 3.37359761
3.428738459, -11.6896247, 3.449253796
2.941185494, -11.63952073, 3.527910218
2.473339939, -11.62598476, 3.633058221
9.310213948, -11.88226984, 3.073370805
8.552187347, -11.78618267, 3.112535052
10.07445055, -11.91050902, 3.627324649
9.312408249, -11.8761005, 3.663084384
8.60731279, -11.85649322, 3.706819112
10.05897872, -11.86531186, 4.244373309
9.309970891, -11.85465947, 4.26791024
8.614153527, -11.86591704, 4.308882938
7.912821112, -11.81688039, 4.346866996
10.6360157, -11.87017312, 0.871551363
9.904689617, -11.89673534, 0.993460204
2.526657241, -11.66164697, 1.319859546
3.913334502, -11.70049579, 1.462868692
3.91232243, -11.67714041, 1.920787777
3.940327441, -11.70508832, 2.871783085
3.456423936, -11.68368981, 2.957356806
2.986822102, -11.66928114, 3.047523792
2.521657823, -11.65823483, 3.147015515
3.955247663, -11.7061488, 3.371491658
3.466227561, -11.68458487, 3.450888393
2.978070813, -11.63509007, 3.529319751
2.512629914, -11.63516742, 3.638319641
10.65783578, -11.8861743, 1.456831888
9.86855817, -11.84997228, 1.552007294
9.142522419, -11.82338984, 1.653205078
11.54308748, -11.96104734, 1.970939996
10.58654055, -11.79795975, 2.031172771
9.906565393, -11.88801355, 2.133247877
11.52701563, -11.93188515, 2.587608183
9.871252715, -11.85473311, 4.715170775
10.74187018, -11.9490722, 4.721642244
14.10665528, -11.99408772, 5.659608276
15.37851278, -12.102403, 5.750722155
18.15897868, -12.19755552, 5.96881436
14.24253259, -12.10148171, 4.930987302
15.38068744, -12.10411406, 4.951827817
16.7440571, -12.20041116, 5.02854454
14.17663003, -12.03824456, 4.169821183
2.565197516, -11.66645947, 1.321288745
3.952073739, -11.69690206, 1.463928344
3.461570524, -11.61919913, 1.55353393
3.958581975, -11.69596705, 1.925873245
3.980923476, -11.70677598, 2.87518031
3.496709321, -11.68792767, 2.961130736
3.023581936, -11.6638163, 3.048504884
2.559486139, -11.65988787, 3.149566594
3.998621909, -11.71587217, 3.377809275
3.509800064, -11.69970035, 3.458516594
3.016641613, -11.63704366, 3.532703148
2.546881198, -11.62086526, 3.636273534
15.38992593, -12.1170401, 4.186695387
16.73681489, -12.20452714, 4.217331043
18.08879852, -12.19766172, 4.22778346
14.1647326, -12.02814143, 3.448792022
11.54601047, -11.90597895, 4.695899724
12.57116469, -12.02728379, 4.747148977
9.934374202, -11.9224951, 4.09448761
10.75944849, -11.9686261, 4.071786218
11.56778973, -11.94636438, 4.036233065
12.4697589, -11.95697227, 4.01709897
9.95339869, -11.93812312, 3.484841745
10.70220195, -11.91037991, 3.422513536
2.600761202, -11.65756524, 1.321178835
3.99339359, -11.70069871, 1.465929988
3.512937806, -11.66075965, 1.560524363
3.998281641, -11.69498624, 1.927722538
4.027261799, -11.72490724, 2.882654255
3.530018491, -11.66877321, 2.959007857
3.061567109, -11.66292469, 3.050712402
2.600711498, -11.67651874, 3.156199398
4.04240715, -11.72635024, 3.384390103
3.543164111, -11.68059071, 3.456064697
3.060611974, -11.65928512, 3.542289005
2.582936648, -11.61486425, 3.636858137
10.02505487, -11.85220298, 0.134657932
10.07516208, -11.90891284, 0.705076029
9.306691972, -11.83951253, 0.823501913
8.589162438, -11.78393313, 0.935820068
14.0574385, -12.02674142, 5.654639156
15.30671243, -12.12212653, 5.737752663
2.640901871, -11.66891887, 1.32337765
4.028624454, -11.68651517, 1.465694549
3.548984955, -11.6508765, 1.560651441
4.039947757, -11.69947607, 1.930496421
4.065449033, -11.71893853, 2.884239503
3.579728876, -11.70342351, 2.970565673
3.09484386, -11.64410724, 3.048259551
2.637161631, -11.67131467, 3.156964723
4.074240436, -11.70204908, 3.380968081
3.585471871, -11.69082312, 3.462330578
3.100064415, -11.66374949, 3.546518075
2.620873511, -11.61714627, 3.640073449
17.98001614, -12.15756124, 5.922222124
14.10171462, -12.05652445, 4.895017091
15.29560049, -12.11332638, 4.936375433
16.49888148, -12.09943176, 4.966038342
14.13072904, -12.07407464, 4.167196193
16.60765609, -12.18856394, 4.194188704
17.86690469, -12.12793824, 4.184597752
14.09562139, -12.04407716, 3.440945666
10.06197916, -11.88070892, 1.273168288
9.301543294, -11.82446544, 1.372862533
8.593935387, -11.78702283, 1.468093371
10.10432963, -11.91889876, 1.8527236
9.350359347, -11.8775607, 1.936992306
2.682026094, -11.68401228, 1.326016347
4.069357037, -11.68816776, 1.467460754
4.07907565, -11.69635595, 1.932037557
4.105892152, -11.71927969, 2.887410231
3.62509162, -11.72302328, 2.978349325
3.139621087, -11.66825986, 3.057089385
2.677492088, -11.6829605, 3.162321987
4.114922366, -11.70314652, 3.384916768
3.637563536, -11.73215138, 3.477859018
3.144558802, -11.6866106, 3.556385982
2.65671545, -11.60998346, 3.640365751
10.06935785, -11.86504598, 2.42718276
10.11364324, -11.89911561, 3.026204843
9.349658149, -11.8574974, 3.074368347
8.681738752, -11.88782596, 3.146396686
10.13114612, -11.90328025, 3.634572096
9.386724687, -11.8955363, 3.677944299
8.650510283, -11.83942379, 3.709762389
10.1316481, -11.87696537, 4.259640683
9.35584195, -11.83811925, 4.272269009
8.646555335, -11.83401049, 4.30690931
7.96507383, -11.81633808, 4.355636032
2.719437019, -11.6825055, 1.326785845
4.109478776, -11.68780656, 1.468991401
4.113955858, -11.68099101, 1.931575264
4.145075453, -11.71581031, 2.88967497
3.660750416, -11.7109185, 2.978113527
3.175404087, -11.65857267, 3.057089385
2.71332246, -11.67469112, 3.162321987
4.152099032, -11.69410291, 3.385969624
3.664331738, -11.69155649, 3.469141244
3.18443227, -11.69171942, 3.560897098
2.697294111, -11.62320389, 3.647088678
11.59384789, -11.98206045, 3.394573322
13.94944875, -12.00866815, 5.625993166
15.13514545, -12.06199498, 5.687285647
16.43186726, -12.10894581, 5.779359578
17.81822085, -12.12798375, 5.881157863
13.97670007, -12.02406121, 4.864404146
15.1507097, -12.07439903, 4.90154677
16.44839195, -12.14018253, 4.962028619
17.77806288, -12.12973089, 5.004331178
14.08843971, -12.11291731, 4.165664593
15.14707191, -12.07712051, 4.140710643
16.41963763, -12.12825951, 4.156083215
17.79799854, -12.16109601, 4.177178639
13.90054995, -11.95137407, 3.40226082
4.147822316, -11.75894925, -0.804807839
2.715529454, -11.58530809, -0.42800947
4.155414075, -11.76803017, -0.348166031
2.73658102, -11.61761234, 0.880472765
2.757092165, -11.68184599, 1.327665488
4.148307324, -11.68356618, 1.470051053
4.152421869, -11.67576208, 1.932808126
4.187225614, -11.72046562, 2.893978185
3.694904969, -11.69407336, 2.976698277
3.213475788, -11.65718663, 3.059296901
2.7506795, -11.67290042, 3.164107744
4.191212118, -11.69039067, 3.388602003
3.705995306, -11.69860466, 3.474589825
3.213912714, -11.65877126, 3.553848492
2.744111781, -11.66235032, 3.661996277
12.49667271, -11.99911667, 3.357228538
9.905200151, -11.8803141, 2.870708982
10.67089517, -11.87887566, 2.802365181
11.54601729, -11.93888108, 2.751331852
12.42700499, -11.95016144, 2.689010465
9.905366981, -11.87924867, 2.284817916
10.69609309, -11.91487051, 2.207264924
11.57735731, -11.98383828, 2.135139961
9.91460358, -11.89032699, 1.712464135
10.68407044, -11.90900248, 1.610186314
9.908365509, -11.89339137, 1.141936646
10.68234717, -11.91042657, 1.026763465
9.862025163, -11.84533319, 0.572994006
4.190910394, -11.76591001, -0.806160447
2.774395626, -11.67512206, -0.431640019
4.186797984, -11.74204474, -0.34777562
4.203517763, -11.76621109, 0.108383847
4.203645063, -11.76267872, 0.564602663
2.788424902, -11.6770635, 0.885622607
4.210494188, -11.76240629, 1.021648131
2.796156449, -11.68686507, 1.3292046
4.189829992, -11.68667613, 1.472052815
4.191896378, -11.67319618, 1.934503282
2.770566775, -11.58258975, 2.670129459
4.226799407, -11.71764256, 2.896469421
3.729877703, -11.6799046, 2.975990649
3.245577378, -11.63420023, 3.055863196
2.787377145, -11.66816802, 3.165128175
4.231327018, -11.6892699, 3.392024025
3.743922312, -11.69359395, 3.476496933
3.260751823, -11.6885943, 3.565972075
2.781653607, -11.66131881, 3.664334688
13.91760042, -12.05579085, 5.628039273
15.09283006, -12.10417064, 5.68531202
17.77058152, -12.17550302, 5.877735602
13.95290478, -12.07827546, 4.868996088
15.11435098, -12.12143006, 4.901791865
16.35880288, -12.15176313, 4.946225283
13.97963169, -12.09415704, 4.144443435
16.25180956, -12.08153147, 4.122965445
17.75979612, -12.21508567, 4.176988381
13.9240474, -12.04606984, 3.417041342
4.219557931, -11.73233807, -0.804743406
2.81488196, -11.68598652, -0.43235894
4.218400751, -11.716918, -0.347413075
4.221952615, -11.70434627, 0.107932789
4.222420341, -11.70180275, 0.562299837
2.829867143, -11.69171622, 0.887388274
4.228267279, -11.69881699, 1.017246924
2.834340581, -11.68789153, 1.330304067
4.233438341, -11.69524243, 1.474760892
4.229036764, -11.66399592, 1.935119713
2.812756116, -11.60153662, 2.676474015
4.264728582, -11.71011154, 2.897828408
3.771364455, -11.68597887, 2.980472205
3.298110612, -11.68389944, 3.071560674
2.825436955, -11.66895871, 3.167679252
4.278097125, -11.70613574, 3.400710571
3.785704007, -11.70036147, 3.481945513
3.300766803, -11.69330935, 3.570482957
2.819439647, -11.66109542, 3.666965398
10.06590652, -11.82672098, 0.134718655
10.13366757, -11.90380964, 0.706611266
9.347926614, -11.81716922, 0.823938696
8.631768102, -11.76637717, 0.936524595
10.15914948, -11.92108977, 1.280829631
9.39093382, -11.86302411, 1.380677776
4.254510682, -11.71652297, -0.804550168
2.856645839, -11.70156731, -0.43325757
4.250571435, -11.69358645, -0.34710632
4.268448863, -11.72046568, 0.108201688
2.870464319, -11.71821661, 0.448506039
4.266165683, -11.7103823, 0.56333833
2.869524916, -11.69847675, 0.888565347
4.266188658, -11.69140805, 1.017735921
2.873743124, -11.69361906, 1.331953208
4.27338935, -11.6933921, 1.47617388
4.267178986, -11.65746153, 1.936198438
2.848801495, -11.59474803, 2.676911515
4.301643039, -11.69971508, 2.8985079
3.806897362, -11.67342919, 2.980236407
3.341661323, -11.70075923, 3.078673654
2.86560161, -11.67807822, 3.172526304
4.324676486, -11.72191855, 3.409134136
3.832645736, -11.72253021, 3.492025612
3.342422231, -11.7034235, 3.576685653
2.856340042, -11.65703481, 3.668426903
8.694218513, -11.84803744, 1.479008174
10.1537385, -11.90295373, 1.855078462
9.415703559, -11.88535951, 1.942966002
10.11469454, -11.84461738, 2.429340446
10.19093903, -11.91578141, 3.038380404
13.77889868, -12.00983391, 5.586824329
16.24236948, -12.12378608, 5.738767381
13.77068996, -11.99464557, 4.818229619
14.87264341, -12.00274673, 4.835322673
16.29186849, -12.17978302, 4.937262175
17.6303923, -12.18818361, 4.983721323
13.85487927, -12.06074828, 4.118409555
14.95779295, -12.07706985, 4.109148315
4.289749072, -11.70154175, -0.804421362
4.282638653, -11.67016848, -0.346799565
2.903151617, -11.71462338, 0.008215107
4.304041754, -11.70637592, 0.108193016
4.2827623, -11.64473394, 0.560809722
4.269997106, -11.59128804, 1.010156118
2.911526425, -11.69246337, 1.332832735
4.3140561, -11.69327019, 1.477822307
4.306005475, -11.65265652, 1.937585438
2.892139233, -11.61719948, 2.684131065
4.34124542, -11.6965068, 2.900999135
3.854554277, -11.69769073, 2.989435313
3.374314058, -11.67927596, 3.075730377
2.900482754, -11.66547817, 3.171505872
4.369372812, -11.73210169, 3.415978181
3.864064691, -11.69701175, 3.487939115
3.385502343, -11.71800119, 3.58429812
2.894624778, -11.65842671, 3.671642454
16.20760551, -12.1260518, 4.121169677
17.67784408, -12.23877885, 4.16652467
13.81360806, -12.02482166, 3.398976366
14.88364151, -12.02063329, 3.3575834
9.405483518, -11.85332063, 3.080752482
8.719907031, -11.86349858, 3.147023728
10.18028852, -11.88693826, 3.63910181
9.434657617, -11.88114159, 3.682425853
8.701151052, -11.83235379, 3.715894276
10.18940194, -11.87071467, 4.268590912
9.434639453, -11.86282652, 4.291611433
8.738523487, -11.88317499, 4.334539163
8.030283927, -11.83457856, 4.371420297
4.331863452, -11.70517186, -0.805580732
4.343763595, -11.70342927, 0.108288435
2.949086664, -11.69022186, 1.333602349
4.353376263, -11.68928532, 1.478999736
4.349677587, -11.66068355, 1.941129888
2.932300618, -11.62624932, 2.688287658
4.377450824, -11.68404534, 2.901225633
3.886740405, -11.67474575, 2.986604808
3.418831834, -11.6986456, 3.083579116
2.936022026, -11.65558692, 3.171250764
4.405685382, -11.71954385, 3.416241394
3.915467605, -11.7316495, 3.501832962
3.422782347, -11.71216393, 3.585707888
2.929212206, -11.64485391, 3.670180947
10.68012171, -11.88972021, 2.647554205
9.873191495, -11.83997961, 2.705565092
9.173738609, -11.86504332, 2.783485454
11.5598278, -11.94789178, 3.221584817
10.68318473, -11.88686878, 3.253922572
9.944618101, -11.92224896, 3.318420938
9.170023353, -11.86023881, 3.361234823
11.58541445, -11.95803921, 3.871471471
10.71083296, -11.90884953, 3.887633918
9.937075955, -11.90771368, 3.923886116
13.70244427, -12.01736851, 5.570747763
14.84697904, -12.05743815, 5.62046598
13.7672758, -12.06615268, 4.829964581
14.83273915, -12.04587417, 4.834341817
16.19696012, -12.18647291, 4.91980755
13.70110378, -12.00097133, 4.083624759
4.366357037, -11.68808757, -0.805323121
4.383156905, -11.69941105, 0.108375175
2.986414314, -11.68689738, 1.334261935
4.394109793, -11.68888852, 1.480648163
2.98951755, -11.69904067, 1.783721666
4.389609398, -11.65837977, 1.942979181
2.970612684, -11.62759768, 2.690694253
4.414654724, -11.67420493, 2.902131624
3.933692227, -11.69592572, 2.995096323
3.456905064, -11.69553939, 3.085541301
2.973918636, -11.65495622, 3.173546734
4.447780084, -11.72220792, 3.420979723
3.947752401, -11.70864083, 3.498564002
3.448364483, -11.66664462, 3.574994073
2.964924344, -11.63581238, 3.670180947
14.88348075, -12.09268656, 4.098906329
16.08108711, -12.10852405, 4.098425975
17.45898561, -12.16666477, 4.123719951
13.71304507, -12.01143077, 3.383283416
14.79777477, -12.0264819, 3.34652054
9.195571715, -11.90057663, 3.967953628
11.59641922, -11.94267522, 4.542089927
10.76960817, -11.95614006, 4.556142566
9.906274134, -11.8708029, 4.543456778
9.131893604, -11.82627034, 4.566972171
9.353516393, -11.87954498, 1.115378365
10.83461562, -11.8618445, 1.466010289
4.42156015, -11.72599251, -0.808865663
4.428225554, -11.7102276, 0.108600704
3.02300226, -11.68056733, 1.334591788
4.437348156, -11.69484928, 1.483120801
3.460533659, -11.60655659, 1.66961708
4.426409356, -11.64762871, 1.943441475
3.005293743, -11.61465084, 2.689819256
4.455311894, -11.67334559, 2.905302352
3.972057126, -11.69116323, 2.996983169
3.506652373, -11.73132153, 3.097804841
3.010629215, -11.64952224, 3.174567165
4.481996973, -11.70400305, 3.419663417
3.991100252, -11.71833304, 3.505102156
3.489361718, -11.67347571, 3.580350862
3.010645628, -11.66555236, 3.682457597
9.336877953, -11.75936292, -0.825554604
10.13076307, -11.82920178, 0.135100318
10.18703749, -11.89238944, 0.707785239
9.399684017, -11.80796484, 0.825303762
10.20410896, -11.8997022, 1.281889164
13.63897993, -12.03593799, 5.559932144
14.76014262, -12.06225427, 5.601576076
17.48142046, -12.21531848, 5.819034564
14.74391723, -12.04899489, 4.817417913
4.462483444, -11.72542945, -0.809767422
4.471262417, -11.71527098, 0.108774191
3.060587383, -11.6779675, 1.335361402
4.47746803, -11.69230934, 1.484533789
3.518430382, -11.66986558, 1.680268909
4.470614618, -11.65613458, 1.947140062
3.043138958, -11.61387135, 2.691788118
4.504058138, -11.69325189, 2.913682051
4.020524019, -11.71568843, 3.006418106
3.535334356, -11.69637954, 3.091427856
3.055413224, -11.6748408, 3.184006157
4.527273148, -11.71449361, 3.426770674
4.027345815, -11.70694365, 3.505374669
3.527379824, -11.67006277, 3.582606539
3.054159018, -11.68586944, 3.691811474
16.01771942, -12.12875245, 4.876643296
17.45714679, -12.227401, 4.955864019
13.69350279, -12.06875686, 4.092375676
14.68959507, -12.01016151, 4.055639077
15.97591686, -12.10631505, 4.081069103
17.30744814, -12.14011615, 4.09670522
13.68055544, -12.05734597, 3.384378235
14.73031025, -12.04688254, 3.339606163
9.429767125, -11.83727285, 1.381041363
8.738210892, -11.83171306, 1.480309939
10.20185033, -11.88530938, 1.857197883
9.465725958, -11.87348034, 1.945762176
10.17609962, -11.84275693, 2.435350504
4.501298187, -11.71913613, -0.810282704
4.508980666, -11.70616411, 0.10881756
3.101754149, -11.68869758, 1.337670247
4.519761828, -11.69519044, 1.48665321
3.540639818, -11.61447969, 1.67385056
4.51134757, -11.65526428, 1.949297513
3.08100741, -11.61296826, 2.693756979
4.536029746, -11.6693925, 2.911190815
4.053265749, -11.69411621, 3.004059429
3.572901646, -11.69104091, 3.092899376
3.092207459, -11.66915101, 3.185026589
4.567748542, -11.71223386, 3.430192698
4.062927581, -11.69362341, 3.505102156
3.56625091, -11.66927945, 3.585707889
3.096846864, -11.70233022, 3.699995907
9.505920044, -11.91109688, 2.52449207
10.2268081, -11.88371551, 3.038190146
9.484605154, -11.87801077, 3.094717851
8.773709717, -11.86027617, 3.153294375
10.24659319, -11.89032788, 3.649746246
9.483196985, -11.86732397, 3.687143204
8.769131387, -11.84846203, 3.729384238
10.25351958, -11.87152315, 4.280172814
9.476400906, -11.84058641, 4.294063329
8.796628424, -11.8856153, 4.345253215
8.092444928, -11.84779143, 4.385451227
10.09693879, -11.89975487, 1.570632553
9.339545622, -11.85115835, 1.669036787
11.76754825, -11.97115155, 1.990367893
13.57767667, -12.0561363, 5.549993904
14.72306616, -12.10748033, 5.601576074
15.95857346, -12.1422584, 5.677742716
4.541197769, -11.71550678, -0.810991224
4.548133755, -11.70066439, 0.108895628
3.144562552, -11.70504426, 1.340638678
4.566445419, -11.70902484, 1.49018562
4.54312984, -11.63124483, 1.947602356
3.130289314, -11.65434957, 2.705570857
4.582835305, -11.68353068, 2.918211765
4.097792483, -11.70639119, 3.010427831
3.611328122, -11.68836147, 3.095106895
3.132001829, -11.67455186, 3.189108316
4.604719205, -11.70085826, 3.430982576
4.098783978, -11.68110363, 3.505102156
3.621010841, -11.7197002, 3.604597792
3.131744494, -11.68907962, 3.698826704
14.68067487, -12.07261953, 4.808832939
15.88458997, -12.10479957, 4.84739506
17.25795115, -12.1669709, 4.909888335
13.61406827, -12.0731602, 4.079686563
14.64210709, -12.04647374, 4.052712728
15.92311779, -12.14338683, 4.077079405
17.17628802, -12.12690926, 4.074446937
13.56993805, -12.03402534, 3.366130631
10.90681748, -11.93210634, 2.071463364
9.829958693, -11.87906731, 4.712832364
10.62333874, -11.89039167, 4.685554251
11.49273613, -11.92402655, 4.689089058
12.45497315, -11.98952222, 4.717140186
9.83238151, -11.87397584, 4.067446175
10.65421279, -11.92494761, 4.04578715
11.49402148, -11.94328622, 4.023260231
4.580754528, -11.71081254, -0.811635312
4.585835379, -11.69131029, 0.108938998
3.182545005, -11.70301403, 1.341518204
4.60707416, -11.70697234, 1.491716267
4.579879356, -11.62000974, 1.94806465
3.180878108, -11.69930372, 2.718259732
4.620808911, -11.67484967, 2.919570514
4.137898432, -11.70567461, 3.013494131
3.648904558, -11.68277845, 3.096578414
3.167297352, -11.66302155, 3.1885981
4.632762538, -11.66694955, 3.425191388
4.139422072, -11.68207771, 3.50918865
3.647224363, -11.67739935, 3.5950117
3.168843073, -11.68403097, 3.700288208
12.39656709, -11.96000615, 4.005322046
9.899293993, -11.94756452, 3.478716055
10.64346371, -11.91835848, 3.415406992
11.45854565, -11.91516088, 3.365645279
12.42520401, -12.00397544, 3.34790661
9.825421356, -11.85840699, 2.858118097
10.6134106, -11.88804612, 2.796833869
11.40952142, -11.87040209, 2.727471159
12.4059059, -12.0033458, 2.692400778
9.835420792, -11.86921015, 2.277072886
9.426512965, -11.79774848, -0.830275828
13.51994402, -12.07925756, 5.541517169
14.65258926, -12.12506881, 5.588888396
15.87999423, -12.15957324, 5.663031337
17.22346456, -12.19303058, 5.757964598
13.50778047, -12.06033774, 4.777667466
4.623622482, -11.71434028, -0.812859115
4.632354237, -11.7041495, 0.109190544
3.222390831, -11.70756932, 1.343167345
4.645534287, -11.69924392, 1.492540481
4.612951539, -11.59947761, 1.946985925
3.218827029, -11.69701607, 2.720009962
4.656966272, -11.66152268, 2.919797011
4.175751313, -11.69841616, 3.014909384
3.687648227, -11.68077398, 3.099031264
3.205883169, -11.66350504, 3.191404286
4.692214685, -11.711787, 3.442564713
4.185291044, -11.69740682, 3.51763415
3.202648971, -11.66687673, 3.697949799
14.63012316, -12.10647795, 4.804418379
15.69700872, -12.0381563, 4.8014003
17.14905052, -12.16913028, 4.889504977
13.54201718, -12.08368704, 4.069185653
14.55536504, -12.05017976, 4.038917353
15.85313842, -12.16712421, 4.068699947
17.07818337, -12.13632815, 4.059988282
13.5087449, -12.05399863, 3.360108893
14.54156669, -12.04217904, 3.313504811
10.24108448, -11.88151103, 0.709004392
9.462086252, -11.81180211, 0.827597051
4.663600853, -11.71029906, -0.813567635
4.191503737, -11.74463004, -0.685619885
4.205499271, -11.76697586, -0.228152615
4.670836052, -11.69638303, 0.109251266
4.209694922, -11.76445989, 0.225735502
4.207675008, -11.74330448, 0.682138292
4.209018655, -11.73415515, 1.137584762
3.262561045, -11.71294803, 1.344926398
4.68288247, -11.6886243, 1.493011477
4.649252422, -11.58710452, 1.947294082
3.254698017, -11.68708606, 2.720009963
4.704369869, -11.67609099, 2.927044459
4.217882358, -11.70292067, 3.019390939
3.730539597, -11.69157102, 3.104917818
3.247870154, -11.6759718, 3.197526875
4.733546578, -11.71075302, 3.446513164
4.227370094, -11.70170511, 3.522810218
3.738638829, -11.71695468, 3.614183652
3.249178669, -11.69569567, 3.710226685
10.28354182, -11.91814401, 1.287268364
9.480988581, -11.82693502, 1.383222298
8.782185033, -11.81523053, 1.481611705
10.26487949, -11.88476737, 1.862025501
9.541212328, -11.89312598, 1.953769346
10.31384248, -11.9288263, 2.459545221
9.552301396, -11.89418491, 2.527106808
10.31077474, -11.90720408, 3.052268048
9.548622401, -11.88322986, 3.103695503
8.842758658, -11.8772289, 3.164999535
10.293872, -11.87134535, 3.653596467
14.55633749, -12.12085048, 5.566333518
15.74658552, -12.13423488, 5.628704785
13.34340258, -11.98734774, 4.732513369
4.703598334, -11.70612183, -0.814276156
4.224131282, -11.72232231, -0.685070867
4.226307898, -11.71169715, -0.227331129
4.719030129, -11.71260564, 0.109537517
4.231498765, -11.71199469, 0.224976854
4.236210051, -11.70968385, 0.680937021
4.242286071, -11.71369593, 1.136857705
3.300098299, -11.7086235, 1.345586101
4.720953579, -11.67972642, 1.493717912
3.292919946, -11.68549821, 2.721978823
4.752639443, -11.69228182, 2.934744901
4.266393948, -11.72462694, 3.028354047
3.75865563, -11.65608183, 3.0985406
3.295727368, -11.7087665, 3.209261837
4.772730828, -11.70421569, 3.448882329
4.276438134, -11.72483784, 3.533707615
3.781340694, -11.72643078, 3.620668396
3.277539805, -11.65897368, 3.701749713
14.54448778, -12.11098315, 4.78847533
15.63384586, -12.06606971, 4.793380377
17.05773867, -12.18318945, 4.874104565
13.305938, -11.94655836, 4.009241502
14.43041891, -12.02154471, 4.014461806
15.63581747, -12.0767391, 4.022414795
17.00812933, -12.16524952, 4.052188179
13.45633709, -12.08159175, 3.356277029
9.546964529, -11.87225285, 3.697757361
8.812969319, -11.83161049, 3.732572849
10.39241191, -11.95797357, 4.322816837
9.568206319, -11.88039914, 4.319127318
8.873170598, -11.91243261, 4.364989028
8.149344313, -11.8528534, 4.396558673
4.743988777, -11.70273364, -0.815049049
4.262123245, -11.71493709, -0.685400243
4.256058179, -11.68176652, -0.227002544
4.761719178, -11.7147476, 0.109693652
4.268781224, -11.70271509, 0.225049095
4.274512629, -11.70319754, 0.681319265
4.282990721, -11.71371913, 1.138130024
3.33763975, -11.70417921, 1.346245687
4.75826418, -11.66886527, 1.494188907
3.322066606, -11.65188157, 2.716509502
4.794770732, -11.69296623, 2.938595122
4.311057451, -11.7351994, 3.034486886
3.798302958, -11.65647785, 3.101729208
3.329250276, -11.69023098, 3.206965867
4.810451697, -11.69397842, 3.4501984
4.315381478, -11.71978886, 3.536159511
3.818190992, -11.71751179, 3.62151407
3.312247055, -11.64518409, 3.700580508
10.60804722, -11.88997219, 2.196613096
11.43955113, -11.91412561, 2.116456526
9.854613489, -11.89237111, 1.708396237
10.5859029, -11.87265883, 1.600873684
11.38583227, -11.86688019, 1.500724868
9.854022492, -11.90222481, 1.139876828
10.5959538, -11.88727138, 1.021960164
9.814807855, -11.86244499, 0.572362494
10.09442259, -11.88921721, 2.150044944
13.27251992, -12.00545616, 5.470194728
14.46172136, -12.11738834, 5.544342265
15.67734969, -12.15772261, 5.617262601
13.27428536, -11.9990516, 4.721033516
4.78478077, -11.70013258, -0.815886376
4.28358518, -11.66244058, -0.683094556
4.287735836, -11.65739333, -0.226783482
4.804086415, -11.71581227, 0.109841114
4.30570129, -11.69237825, 0.225103291
4.289325734, -11.63288027, 0.677988557
4.331322387, -11.73415705, 1.141401486
3.37628713, -11.70343461, 1.347345155
4.798952279, -11.6661517, 1.495719555
3.365640589, -11.6688234, 2.72285382
4.835461542, -11.68990206, 2.941539354
4.341295679, -11.70642836, 3.030476925
3.856179005, -11.71199087, 3.119634206
3.364029068, -11.67624581, 3.205945436
4.850003189, -11.6880759, 3.452830779
4.354334349, -11.71461146, 3.538611408
3.846920696, -11.68387103, 3.614747511
3.354569765, -11.65794419, 3.707888278
14.38391086, -12.05219196, 4.747760111
15.58524192, -12.10503609, 4.789842246
16.92379488, -12.16610337, 4.84647376
13.37928232, -12.08674955, 4.042495171
14.36948732, -12.04565732, 4.00777321
15.51977878, -12.06331348, 4.002065292
16.88547555, -12.15599899, 4.031832476
13.31487715, -12.02856693, 3.330182831
14.36249672, -12.04321163, 3.289477702
9.409920123, -11.88199934, 4.632740887
10.19029024, -11.91091847, 4.60632919
10.98013344, -11.89306824, 4.583113428
4.835876317, -11.72229784, -0.818462845
4.845358416, -11.71395523, 0.109962551
4.344687984, -11.68754828, 0.225265862
3.414125944, -11.69969969, 1.348114769
4.840430067, -11.66513125, 1.497485759
3.417275408, -11.71277271, 2.735542696
4.873928428, -11.68130404, 2.9431246
4.374124083, -11.68486362, 3.028354047
3.402270315, -11.67422484, 3.208241407
4.89999317, -11.70695873, 3.462833631
4.394309558, -11.71200739, 3.541880367
3.897890272, -11.71753332, 3.628844488
3.395130697, -11.66412523, 3.713149698
9.468294431, -11.77577615, -0.830769891
10.3102157, -11.88776932, 0.711262097
9.53211877, -11.82469561, 0.830545514
10.34488725, -11.91513683, 1.29036554
9.575378036, -11.86987625, 1.39167376
8.836272768, -11.81213301, 1.484615779
10.34298335, -11.90119039, 1.869561198
9.586377504, -11.87460284, 1.955548782
14.24476797, -12.01018065, 5.475267157
15.48903057, -12.08796184, 5.563049075
13.2273955, -12.03061188, 4.717462005
4.875651331, -11.71661997, -0.819106933
4.884354055, -11.7064175, 0.110031946
4.385793276, -11.68820518, 0.22553681
4.864086879, -11.63726127, 1.031428539
3.455068411, -11.7063297, 1.350093645
4.885397415, -11.67221164, 1.500311616
3.441318199, -11.66199105, 2.726135415
4.930145159, -11.71477481, 2.955354756
4.412356487, -11.67775214, 3.030005332
3.927352165, -11.68627153, 3.119143778
3.452559474, -11.71288702, 3.221762124
4.938888152, -11.69898067, 3.464939581
4.437036118, -11.7164675, 3.547329185
3.936265814, -11.71279528, 3.631100164
14.24310371, -12.00877773, 4.713421638
15.55798421, -12.1605734, 4.792908784
13.23382904, -12.0292898, 4.009679237
14.31302952, -12.07329178, 4.002338697
15.47111922, -12.10181438, 3.999072663
16.83299617, -12.19680094, 4.028217574
13.24808141, -12.04224494, 3.322701493
14.36086112, -12.1170711, 3.297601816
10.36919833, -11.91874444, 2.464014376
9.597429527, -11.87556506, 2.529394911
10.42206886, -11.96137628, 3.07433631
9.616456169, -11.8927387, 3.113870253
8.899679592, -11.8774343, 3.172315172
4.92431943, -11.73197192, -0.821232436
4.90905415, -11.68474257, -0.353576047
4.934597397, -11.72547906, 0.110352887
4.429068201, -11.69433081, 0.225916134
4.945705093, -11.74843094, 0.57616203
4.947389421, -11.73524573, 1.041453444
3.492956653, -11.70234093, 1.350863259
4.926204901, -11.66906136, 1.501842381
3.472572326, -11.63404863, 1.793512683
3.473453063, -11.63922299, 2.723291556
4.9717712, -11.71304292, 2.958751982
4.445738515, -11.65780453, 3.028354047
3.970354571, -11.69528157, 3.124785001
3.479362403, -11.67166121, 3.213343564
4.989118085, -11.71750266, 3.474942432
4.477426657, -11.71448395, 3.550870657
3.967246759, -11.68612784, 3.626589047
3.482737723, -11.69715064, 3.730395706
8.109073394, -11.70140069, 3.191904226
10.4013238, -11.92117432, 3.678736036
9.584566014, -11.84441836, 3.698229191
8.906794906, -11.8813103, 3.756854828
10.36808281, -11.85631562, 4.297546373
9.583406781, -11.82482547, 4.309592008
8.907949318, -11.88285071, 4.364143119
8.176961901, -11.81521382, 4.391881853
9.449616462, -11.92399903, 4.014128627
10.19400506, -11.91525984, 3.967299753
11.05376671, -11.99086635, 3.95839536
11.82736525, -11.91173302, 3.903178996
9.385204792, -11.83550541, 3.386612574
10.21029456, -11.93978409, 3.357925944
10.9935619, -11.93433304, 3.303599229
13.09069832, -11.98785174, 5.425472171
14.1756628, -12.02651661, 5.462861762
15.4291715, -12.11759576, 5.554876087
16.7814148, -12.19196419, 5.65977858
13.10982124, -11.99737186, 4.688634815
14.24019986, -12.08126825, 4.724704083
4.964958126, -11.72783589, -0.822005388
4.953459213, -11.68987574, -0.354189557
4.978752075, -11.72961405, 0.110535046
4.473136123, -11.7021677, 0.226331593
4.98602024, -11.74331802, 0.576658716
4.986489227, -11.72734979, 1.042105518
3.531139985, -11.69918225, 1.351742786
4.979487947, -11.69500898, 1.507140878
3.516824276, -11.65175191, 1.797896724
3.512246397, -11.63878748, 2.725697916
5.01266584, -11.70937538, 2.961696214
4.504520713, -11.70396786, 3.043921588
4.020366927, -11.72431242, 3.135822351
3.518223979, -11.67111474, 3.21614975
5.025043433, -11.70214091, 3.474942431
4.515768714, -11.70697608, 3.552777765
4.017085138, -11.7147414, 3.639276254
15.34492703, -12.07006397, 4.738658543
16.72599619, -12.18026965, 4.81114251
13.19110181, -12.06456627, 4.007928772
14.26697545, -12.10955311, 3.99983006
15.43468877, -12.14982808, 3.999272456
16.66303285, -12.15178257, 3.99644687
13.12909019, -12.00785012, 3.302081625
14.222257, -12.07501332, 3.27426612
11.88875699, -11.98987439, 3.27199938
9.398677757, -11.85249488, 2.807389776
9.864257131, -11.80294713, -0.696620014
5.010711462, -11.73549333, -0.823615667
5.003048992, -11.70679476, -0.355165583
5.018650104, -11.72347736, 0.110621786
4.513695029, -11.7005159, 0.226566406
5.025956852, -11.73714877, 0.577110221
5.027158851, -11.72298852, 1.043083512
3.577460231, -11.72251703, 1.355700771
5.021613548, -11.69427598, 1.50902486
3.536673296, -11.58886724, 1.789859393
3.572996814, -11.71008773, 2.744949978
5.063236519, -11.72792209, 2.970302409
4.545684272, -11.70368091, 3.047459719
4.053145393, -11.7027617, 3.1333695
3.563034972, -11.68986336, 3.224313203
5.05900475, -11.68224282, 3.47362636
4.554456485, -11.70024005, 3.554957151
4.051122527, -11.69692185, 3.637584672
3.569205938, -11.72404911, 3.745887907
9.772207977, -11.8833172, 4.702601822
10.59126927, -11.92794935, 4.68752788
11.4434529, -11.94602811, 4.683912989
12.35160474, -11.96324287, 4.691869723
9.522591842, -11.76918292, -0.832361932
13.09886957, -12.06943014, 5.444179447
14.14088902, -12.07181846, 5.463707197
15.22735907, -12.03481425, 5.495486018
16.54846478, -12.10046371, 5.59370707
13.09215684, -12.0552201, 4.695522727
14.09246921, -12.03048389, 4.687913234
15.28115528, -12.09597422, 4.73040306
5.051033685, -11.73014682, -0.824324187
5.051997985, -11.7216847, -0.356085849
5.058953523, -11.71812398, 0.110717205
4.553923043, -11.69779348, 0.226783173
5.064318548, -11.72717662, 0.577381183
5.074969191, -11.73495353, 1.045528614
3.616923971, -11.72288391, 1.357020061
5.064570359, -11.69521797, 1.511144282
3.581293399, -11.60955816, 2.723947685
5.089084691, -11.68911418, 2.964413947
4.586534087, -11.70234619, 3.050761816
4.091270136, -11.69667704, 3.135086352
3.599736316, -11.68164909, 3.225078526
5.106018121, -11.69230661, 3.481260048
4.59560714, -11.69964504, 3.559043643
4.080020057, -11.66451427, 3.631381974
3.598124906, -11.69019279, 3.738580139
13.03914364, -11.99925869, 3.972925109
14.16431901, -12.09737727, 3.981436541
15.1822722, -12.02675631, 3.943410983
16.62725454, -12.20400926, 3.996827385
13.06252538, -12.02077563, 3.29460005
14.08030179, -12.02902157, 3.250066157
10.36043173, -11.87188911, 0.712210288
9.596029578, -11.82951545, 0.832947998
10.40040953, -11.90511072, 1.292729222
9.619280857, -11.84972253, 1.392764287
8.863493484, -11.77304494, 1.483113742
10.39121332, -11.8828578, 1.87168062
9.626515785, -11.84975507, 1.956311363
5.088984687, -11.71917205, -0.824646231
5.079966225, -11.68779455, -0.355528128
5.096077952, -11.70529891, 0.110743223
4.595273567, -11.69772646, 0.227054121
5.11174465, -11.72115633, 1.045691692
3.655535776, -11.7202719, 1.358009499
5.106388086, -11.69327638, 1.51291037
3.65291508, -11.71402696, 2.751075667
5.13353626, -11.69306647, 2.969396419
4.624201523, -11.69273867, 3.051941273
4.13197931, -11.69778247, 3.138765628
3.632682491, -11.66131874, 3.222527448
5.153140755, -11.7021914, 3.488893736
4.649914703, -11.7320036, 3.573209999
4.137516345, -11.71345925, 3.650553929
3.626869753, -11.656271, 3.73127261
10.42133548, -11.90471922, 2.467712964
9.646889177, -11.86213809, 2.532826946
10.47424944, -11.94706235, 3.078902263
9.675781164, -11.89130235, 3.121251931
8.96257326, -11.88521013, 3.181721261
10.46612341, -11.92141421, 3.688701219
9.704310241, -11.91744076, 3.730307695
8.981155872, -11.90423298, 3.772797639
10.52549441, -11.96206283, 4.347560869
12.90538834, -11.96457089, 5.378995332
14.07249163, -12.08826299, 5.451584087
15.19111797, -12.08207279, 5.495758293
16.56254612, -12.18891761, 5.611080633
14.09446934, -12.10714277, 4.700912768
15.15124062, -12.06893161, 4.701626418
5.126515681, -11.70716098, -0.824903843
5.106570795, -11.65109712, -0.354886723
4.633719238, -11.69007999, 0.227180557
4.177758436, -11.75041262, 1.25510416
3.693567927, -11.71563753, 1.358779114
5.143439424, -11.68028109, 1.513263704
3.678275384, -11.66926136, 2.743199747
5.177271697, -11.69507548, 2.973926134
4.668696337, -11.70015838, 3.057602282
4.174687366, -11.70422596, 3.143916422
3.675702022, -11.67317621, 3.228905146
5.188235242, -11.68456299, 3.488367306
4.690530862, -11.72929682, 3.576751706
4.175045044, -11.70522796, 3.651963695
3.674664641, -11.68340378, 3.743549496
12.94212576, -11.98351735, 3.954548279
15.05565494, -12.00181373, 3.920068852
16.33862777, -12.06946731, 3.9363301
12.93901198, -11.98063393, 3.272702972
14.06349831, -12.08949893, 3.254733202
9.69382867, -11.88633736, 4.342828986
8.963432169, -11.88074049, 4.373447166
8.235037747, -11.82145962, 4.403573902
9.830311874, -11.94589621, 4.081732216
10.56930176, -11.90320943, 4.027391727
11.43247265, -11.95250954, 4.014532683
12.36680468, -12.00476614, 4.007587021
9.806770451, -11.9100843, 3.459026496
10.60230546, -11.94583596, 3.413943818
5.166036601, -11.69959437, -0.825483558
4.208040811, -11.77060262, -0.566099908
4.68292812, -11.70922927, 0.227830829
4.209797704, -11.75092432, 0.34430039
4.21125432, -11.73563351, 0.800173546
4.691792499, -11.70531459, 1.150761798
4.208409404, -11.72255725, 1.253501987
3.734623645, -11.72034955, 1.360648195
5.183682804, -11.6744301, 1.514558913
3.732719592, -11.71649518, 2.756982487
5.190100538, -11.62754954, 2.960790224
4.720538292, -11.72544454, 3.067980641
4.22010193, -11.71781376, 3.151029165
3.723520135, -11.69962047, 3.239364568
5.199223304, -11.61311807, 3.471783624
4.729013683, -11.72109719, 3.578658815
4.213212212, -11.69868309, 3.653937089
3.728744173, -11.72949212, 3.761964709
11.39553097, -11.92263269, 3.35786449
12.36579075, -12.02014193, 3.341818829
9.767744852, -11.86268885, 2.851913968
10.56904474, -11.91171061, 2.794759627
11.37645728, -11.90891683, 2.72828822
12.23946308, -11.91522329, 2.664199199
9.757455091, -11.84892738, 2.267427901
10.47753611, -11.81646803, 2.177084471
11.36117413, -11.90539284, 2.108703393
9.792808505, -11.89185855, 1.703998606
10.52501351, -11.87752737, 1.59716866
11.34730981, -11.89959391, 1.500452237
9.777541777, -11.88388248, 1.135241971
10.54818422, -11.907024, 1.020871307
12.7497394, -11.89321227, 5.329303655
13.87564869, -11.99335263, 5.389557112
15.14421395, -12.12080634, 5.492216823
16.39018142, -12.13976189, 5.56527804
12.90336385, -12.02851672, 4.654195251
13.92817273, -12.03875155, 4.657744701
5.197441365, -11.67366129, -0.824775037
4.225478108, -11.70595778, -0.563611653
4.235975527, -11.71838485, -0.111786034
4.724440903, -11.70871509, 0.228101777
4.236988534, -11.71351394, 0.343583495
4.243499472, -11.71233748, 0.799469079
4.248761619, -11.72175132, 1.254803753
3.772391523, -11.71451336, 1.361307781
5.22231552, -11.66481624, 1.515383126
3.765956172, -11.69662882, 2.755013625
4.756854941, -11.71180775, 3.068216439
4.259013376, -11.71301123, 3.153236681
3.754363495, -11.67249338, 3.235027733
4.770392368, -11.71990164, 3.582745074
4.263509147, -11.72537599, 3.666342484
3.745113447, -11.65699426, 3.742380054
16.30270906, -12.10319752, 4.721229619
12.81320085, -11.93736332, 3.926326434
13.93522653, -12.05037374, 3.937750868
15.03175711, -12.05837111, 3.923460594
16.22352316, -12.06154836, 3.917495985
12.84104757, -11.96330602, 3.257192651
13.97345179, -12.08683824, 3.242460366
9.595850144, -11.78559627, -0.835600908
4.264107958, -11.7004478, -0.563973573
4.268478619, -11.69593987, -0.111696329
4.767502975, -11.71176038, 0.22844498
4.273247851, -11.70139824, 0.343611092
4.281126686, -11.70394966, 0.799789275
4.755250935, -11.65602042, 1.148762421
4.289490535, -11.72174208, 1.256205654
3.810466435, -11.70950058, 1.362077396
3.812993554, -11.71935202, 2.763108175
5.263763094, -11.6008064, 2.962149208
4.796448451, -11.70615068, 3.070575114
4.295930681, -11.7026205, 3.153972444
3.797329907, -11.68299004, 3.241150324
4.813269789, -11.72212246, 3.587921379
4.301115515, -11.71674322, 3.667752251
3.800939983, -11.70730232, 3.762257011
9.65657375, -11.83990534, 0.27602339
10.41460261, -11.86031486, 0.713429441
9.672688084, -11.84952461, 0.836442499
10.43951713, -11.87614093, 1.293055141
9.6833109, -11.85408983, 1.396762805
8.906180777, -11.75452016, 1.484215236
10.45713965, -11.88447141, 1.876979115
9.71430338, -11.88313689, 1.966733474
10.47674848, -11.89419312, 2.47218212
9.69823225, -11.85080933, 2.53674917
13.80331562, -12.00501435, 5.375742185
15.0485067, -12.12013491, 5.470967052
16.31109097, -12.15885381, 5.551063048
12.78459199, -11.99131502, 4.624602262
13.88019953, -12.07188272, 4.654065425
4.809868447, -11.71280235, 0.228752049
4.312865446, -11.67952617, 0.799020792
4.809180582, -11.6855807, 1.153124527
4.325432015, -11.70852672, 1.256205653
3.849787761, -11.70814171, 1.363286774
3.834607122, -11.66403163, 2.752825897
5.309458674, -11.6067467, 2.967811174
4.836794456, -11.70215808, 3.07340562
4.325749782, -11.67302216, 3.149557643
4.853260472, -11.71707849, 3.590918062
4.343709126, -11.72148604, 3.67339109
3.838628283, -11.7010378, 3.764010818
12.76583899, -11.96660773, 3.923044841
13.81556445, -12.02117465, 3.914340547
14.86964625, -12.00348869, 3.890741696
16.22967553, -12.14361323, 3.927959223
12.74331116, -11.94548982, 3.241682093
13.87315242, -12.07468748, 3.227767582
10.51215252, -11.91634436, 3.07928278
9.745118717, -11.90174508, 3.131825558
9.001950154, -11.86155204, 3.18276625
10.57164773, -11.96735617, 3.712934561
9.746370923, -11.89437678, 3.732430574
9.007082452, -11.86272556, 3.768382842
4.849224178, -11.70630398, 0.22891462
4.844245176, -11.668932, 1.152942733
4.36376675, -11.70172804, 1.256906605
3.891016871, -11.71231071, 1.365155856
3.898056667, -11.73555505, 2.772515458
5.373595073, -11.65231724, 2.983664818
4.87865685, -11.70161524, 3.077179549
4.372071261, -11.68784438, 3.157161052
3.897264415, -11.74481691, 3.264875593
4.896974821, -11.72077811, 3.596639156
4.3772967, -11.70181416, 3.671417461
3.887747506, -11.7291469, 3.77687207
10.58708459, -11.95788484, 4.357826698
9.774197327, -11.91009337, 4.362443685
9.006801315, -11.86235498, 4.376830326
8.280050943, -11.80866832, 4.408250722
9.753616296, -11.86239652, 0.570913684
13.73104176, -12.01634603, 5.361927258
14.96939254, -12.13231986, 5.455711123
12.77235512, -12.05370838, 4.633531511
13.79421868, -12.07163427, 4.637632186
14.87654672, -12.07558032, 4.650678274
4.916784865, -11.79493163, -0.702583308
4.888970506, -11.7005975, 0.229095252
4.915883552, -11.75116818, 0.69655308
4.88156098, -11.65769002, 1.153306321
4.405605295, -11.70411456, 1.258608913
3.931991555, -11.7153948, 1.366914909
3.930317439, -11.71243904, 2.769890229
5.410139862, -11.63754243, 2.984117811
4.921314659, -11.70271684, 3.081425305
4.412702647, -11.68707341, 3.160594993
3.92498047, -11.70805241, 3.257987444
4.939262521, -11.72077206, 3.601270436
4.423344024, -11.71525703, 3.679875599
3.910959405, -11.67907791, 3.76459542
12.65666097, -11.93742621, 3.900730054
13.70209943, -11.99650927, 3.892602256
14.89207531, -12.09724301, 3.906303039
16.05117859, -12.08704711, 3.893715401
12.69301343, -11.97171238, 3.238215011
13.766392, -12.05619475, 3.21151888
9.862007441, -11.78937832, -0.137891281
9.94965493, -11.88909464, 0.42762512
9.168568473, -11.80045947, 0.555533778
10.69645257, -11.86418413, 0.873517005
9.962290012, -11.89153656, 0.995573784
10.70025494, -11.86007543, 1.457649782
4.911537805, -11.68130427, -0.696709211
4.930038559, -11.71042966, -0.231986192
4.925620799, -11.68738596, 0.229131373
4.943373003, -11.71579128, 0.695351867
4.940938672, -11.69861914, 1.158849672
4.446085834, -11.70263525, 1.259910679
3.973660004, -11.72021973, 1.368893902
3.975943446, -11.7289743, 2.776672284
5.453257484, -11.63676593, 2.988194532
4.959850748, -11.69382616, 3.083076355
4.453025523, -11.68525753, 3.163783368
3.968325295, -11.71793532, 3.264110269
4.977832846, -11.7117617, 3.603177545
4.472248085, -11.73570018, 3.690589415
3.95688491, -11.69691849, 3.77424136
9.940654548, -11.86234603, 1.557614899
9.206222167, -11.83058433, 1.658152502
11.62815303, -11.97544809, 1.979182126
9.649047846, -11.77695482, -0.837083156
8.318968086, -11.7979982, 0.009826273
9.706807195, -11.82722672, 0.276420774
8.369979618, -11.86110942, 0.539670897
10.52634584, -11.9136516, 0.718577017
12.58912823, -11.96196648, 5.307965667
13.68546989, -12.05080711, 5.358544097
14.85455384, -12.11494367, 5.427377937
16.02136923, -12.09652187, 5.477621064
12.58386307, -11.94902561, 4.578427737
13.73310877, -12.09275476, 4.62953835
5.479473834, -11.72156378, -0.835145113
4.96645431, -11.7112243, -0.699399228
4.979619722, -11.72746026, -0.232625125
4.971623368, -11.6961436, 0.229601027
4.993759779, -11.7345653, 0.697372108
4.993197739, -11.72188655, 1.162666515
4.494436106, -11.72145525, 1.263415432
4.014429114, -11.72207911, 1.370543044
4.018230601, -11.73518353, 2.78104774
5.492676858, -11.62790639, 2.990232771
4.999143626, -11.68659518, 3.085199233
4.493726071, -11.68420873, 3.167217309
4.003943885, -11.7047902, 3.26385516
5.0129824, -11.6946664, 3.602632758
4.503409992, -11.70938691, 3.686642156
3.996462483, -11.69558387, 3.777748976
