x	y	z
4.99227191, 2.652803833, 1.542546973
6.717466703, 2.648975762, 1.905148449
6.041092442, 2.648506755, 1.668841179
5.453515971, 2.635906757, 1.470187065
4.990801235, 2.644877606, 1.313365168
6.707452975, 2.647326842, 1.616735499
6.031699442, 2.642757158, 1.407548956
5.476191566, 2.644391432, 1.238126508
4.981848345, 2.635790953, 1.09218838
6.675334448, 2.634650075, 1.331890625
5.992464057, 2.624569118, 1.148119327
5.428800907, 2.619754634, 0.998552846
4.970462643, 2.624994582, 0.876713838
6.599438874, 2.605094821, 1.048078993
5.992529653, 2.622229877, 0.901724303
5.443452485, 2.623311975, 0.774288494
6.626916425, 2.615941541, 0.788067738
6.007773266, 2.626651586, 0.659895992
5.415071862, 2.607189616, 0.54843618
6.645772431, 2.620033595, 0.526974128
5.959340659, 2.604485326, 0.417378838
5.334091797, 2.565907064, 0.323678522
4.887160024, 2.571409013, 0.249609997
6.61263595, 2.604569941, 0.264207315
6.777498941, 2.64606101, 2.223855887
6.101919122, 2.652885277, 1.955251084
5.520102945, 2.652327504, 1.734025832
5.042199319, 2.659529315, 1.555445419
6.779597156, 2.649471494, 1.920454923
6.074972505, 2.641169882, 1.675954158
5.506264732, 2.640594072, 1.482216473
5.029063171, 2.645424192, 1.321291991
6.752801438, 2.641309625, 1.625705282
6.073861182, 2.639048329, 1.415491751
5.50371989, 2.636892802, 1.242515672
5.015117365, 2.633731569, 1.097705504
6.710855476, 2.624902647, 1.337364952
6.060113411, 2.632068959, 1.159527895
5.464397046, 2.616294053, 1.003619122
5.000370337, 2.62120129, 0.880566504
6.705977078, 2.623399213, 1.063715438
6.044166863, 2.622761054, 0.908279324
5.471161845, 2.616012546, 0.777084726
6.698779199, 2.620583686, 0.795653741
6.031322194, 2.614935898, 0.661598301
5.479657256, 2.617607132, 0.554161327
6.698366793, 2.617052858, 0.530505464
5.994772359, 2.598095277, 0.419300164
5.353653846, 2.555121272, 0.324388324
4.910964874, 2.564727521, 0.250422766
6.741613218, 2.631508083, 0.269036752
6.872991142, 2.659071873, 2.252501877
6.165534978, 2.658081956, 1.973013385
5.570772673, 2.655667798, 1.747374892
5.092214716, 2.665973147, 1.568343865
6.835481836, 2.647166306, 1.933975642
6.14269305, 2.648234275, 1.692387514
5.544176028, 2.637884105, 1.490236159
5.058740874, 2.641252872, 1.326953957
6.815462277, 2.64173904, 1.638831655
6.115158727, 2.634718496, 1.423225572
5.526829177, 2.627146725, 1.245907179
5.045808403, 2.630131449, 1.102651854
6.778466075, 2.627398998, 1.349225919
6.093488989, 2.624373501, 1.164367911
5.535668059, 2.629571775, 1.015222713
5.040819278, 2.622721798, 0.886268462
6.803464784, 2.637498407, 1.077890496
6.081303784, 2.616735084, 0.912649357
5.533828442, 2.625147444, 0.784837742
6.769805951, 2.624449819, 0.803129833
6.086848157, 2.616854732, 0.666805363
5.517358893, 2.614858096, 0.557160273
6.751005378, 2.613773664, 0.534036742
6.04489098, 2.597816464, 0.422246213
5.391248291, 2.552785874, 0.326190172
4.935661703, 2.558383575, 0.251280685
6.800915404, 2.630640927, 0.271079969
6.941837987, 2.66125163, 2.272378597
6.210713735, 2.654993178, 1.984854687
5.608466982, 2.65255111, 1.756637572
5.132043696, 2.666796889, 1.578083502
6.907664653, 2.650778446, 1.952088419
6.172183002, 2.638521933, 1.69827407
5.607606983, 2.646996464, 1.505095956
5.107465153, 2.646783674, 1.337598628
6.89822881, 2.649505805, 1.656771104
6.158285257, 2.63092851, 1.431377343
5.56765565, 2.625643125, 1.253288856
5.083500162, 2.629976641, 1.109120149
6.866346885, 2.637260365, 1.365101259
6.153142906, 2.62771571, 1.174220797
5.579405849, 2.629398989, 1.021759794
5.069911671, 2.618124894, 0.889967049
6.849386714, 2.631157768, 1.083881956
6.138506344, 2.619058609, 0.920023705
5.562497821, 2.617872342, 0.787761051
5.077474959, 2.618664034, 0.677389207
6.818650121, 2.619350719, 0.807967286
6.125967444, 2.611434168, 0.670210038
5.565910317, 2.616986766, 0.561249689
5.133642154, 2.644456578, 0.472232067
6.814859535, 2.614482761, 0.538450883
6.136376997, 2.614859075, 0.428074296
5.438820396, 2.554913801, 0.328592657
4.956812118, 2.550084285, 0.251958002
6.823884387, 2.615485864, 0.271674376
6.979471856, 2.651148069, 2.282024771
6.278897799, 2.661387306, 2.004026638
5.670583736, 2.660671905, 1.773528334
5.16935332, 2.666074404, 1.587033379
6.970895173, 2.650535844, 1.967649881
6.238266697, 2.644165236, 1.714216764
5.656184747, 2.648737988, 1.515946147
5.14327885, 2.645357587, 1.344846076
6.949187299, 2.644641886, 1.667053383
6.2185544, 2.634145711, 1.443500571
5.625388678, 2.631802897, 1.264461151
5.124731757, 2.631408676, 1.116349359
6.906567213, 2.628422337, 1.371487896
6.193827137, 2.622651348, 1.180443641
5.622301371, 2.628564712, 1.028133558
5.107816298, 2.617880725, 0.895206656
6.897182489, 2.625264182, 1.090165833
6.198516378, 2.622213331, 0.927807832
5.643302501, 2.6347835, 0.798056084
5.115539922, 2.618458253, 0.681392552
6.888892234, 2.622108498, 0.815333467
6.191688383, 2.617031717, 0.676518595
5.617233441, 2.620104987, 0.565611736
5.138181561, 2.626879542, 0.471906059
6.88344237, 2.616596174, 0.543232845
6.176544711, 2.609614393, 0.430315848
5.52265772, 2.573644366, 0.333179204
5.016216136, 2.561212949, 0.254576912
6.768350127, 2.570412867, 0.269148183
7.043065048, 2.650607003, 2.300147683
6.333911911, 2.661811968, 2.018969521
5.717101513, 2.661127647, 1.785515306
5.203271461, 2.663389877, 1.594930398
7.03780863, 2.651293657, 1.984232129
6.276736582, 2.637784195, 1.722556167
5.691605432, 2.644064726, 1.523258088
5.186939173, 2.647722029, 1.354131766
6.993788931, 2.637080272, 1.675804415
6.286113746, 2.640046855, 1.457296064
5.676989403, 2.634745318, 1.274236908
5.173017485, 2.636178488, 1.125100632
6.996477174, 2.63809396, 1.387728254
6.267231784, 2.631087501, 1.19288933
5.649133513, 2.620020089, 1.031565592
5.156334657, 2.622803959, 0.902295614
6.949634453, 2.620847145, 1.097180228
6.244900645, 2.619276771, 0.933543468
5.683760875, 2.632464645, 0.802631635
5.155421929, 2.618943092, 0.685631338
6.934104095, 2.614990281, 0.819731156
6.255664917, 2.62148111, 0.682626878
5.663204862, 2.620423342, 0.569428519
5.157771201, 2.61696592, 0.472965592
6.923169765, 2.607416678, 0.545734213
6.238828478, 2.613401553, 0.434094484
5.607567296, 2.592303288, 0.33782035
5.081971931, 2.575161786, 0.257511904
6.94081592, 2.611573035, 0.275686514
7.090590569, 2.643686806, 2.313008936
6.388987352, 2.661923873, 2.03391217
5.746204045, 2.653255763, 1.792053697
5.250123113, 2.667076042, 1.606775867
7.07670918, 2.641184594, 1.992905796
6.334913499, 2.639394523, 1.736291462
5.731463378, 2.641232632, 1.531749485
5.224579699, 2.646762109, 1.36183209
7.092340729, 2.649416131, 1.697462957
6.330295038, 2.635784748, 1.46565681
5.719759409, 2.633298074, 1.282017579
5.196849854, 2.628270543, 1.12852492
7.043221797, 2.631067471, 1.39539222
6.30801013, 2.62547252, 1.199112291
5.713608918, 2.628653637, 1.04186158
5.182879696, 2.616322593, 0.905531848
7.031778464, 2.627212133, 1.108871083
6.294983123, 2.61760174, 0.939825321
5.71344209, 2.62495291, 0.805682022
5.180280521, 2.61160773, 0.687868538
6.987717231, 2.610750038, 0.825118344
6.302269183, 2.618309521, 0.686832582
5.69293935, 2.613006791, 0.571609513
5.203163283, 2.6199559, 0.476388745
7.025507675, 2.621376437, 0.553164648
6.272622523, 2.60496554, 0.43588772
5.649983856, 2.590903215, 0.339895188
5.141612595, 2.585589341, 0.260130842
6.972204562, 2.598992955, 0.276615244
7.169538063, 2.64809697, 2.336101203
6.430820847, 2.656228659, 2.044625983
5.795431767, 2.654445548, 1.804857966
5.280678641, 2.662248178, 1.613619912
7.177283697, 2.653663067, 2.018926801
6.398534778, 2.642893173, 1.751498395
5.780195079, 2.642220579, 1.542599555
5.28140795, 2.655221295, 1.374515123
7.126973798, 2.637465722, 1.703807393
6.374508601, 2.631276169, 1.474017671
5.770596368, 2.6352763, 1.291593782
5.24963749, 2.634773717, 1.138227364
7.104742043, 2.629238518, 1.405975858
6.333334515, 2.613245531, 1.202396509
5.746776941, 2.622580674, 1.046437665
5.25890451, 2.634485756, 0.917398061
7.088048694, 2.623482724, 1.116470079
6.339619026, 2.613378556, 0.945287848
5.755766487, 2.623042446, 0.810511787
5.219352021, 2.611253652, 0.691989604
7.064671907, 2.614830377, 0.83325408
6.361792265, 2.620181261, 0.692440188
5.715430529, 2.602131136, 0.573063567
5.227224831, 2.611999532, 0.477855824
7.074675747, 2.615023901, 0.556401715
6.358100342, 2.617622241, 0.441267486
5.698806575, 2.592161142, 0.34235227
5.186169296, 2.588091783, 0.261982133
7.018580087, 2.591783274, 0.278138381
7.243190116, 2.650075734, 2.357439429
6.475343049, 2.651392505, 2.05618547
5.861364809, 2.66292006, 1.822838423
5.319881395, 2.661574181, 1.623096335
7.239867492, 2.651582512, 2.034233274
6.459545682, 2.644923931, 1.765969569
5.857308898, 2.655775903, 1.560997602
5.311318063, 2.649876427, 1.380177087
7.190001427, 2.635739179, 1.716933767
6.465817785, 2.645779376, 1.493247679
5.826853843, 2.639393232, 1.30236708
5.285817171, 2.632661546, 1.144315145
7.184779656, 2.633824934, 1.42020897
6.416987858, 2.624752453, 1.216743705
5.800633329, 2.625685745, 1.054772542
5.297928486, 2.633733413, 0.922791804
7.163866743, 2.626584015, 1.12713788
6.390706876, 2.611529123, 0.951706315
5.791806013, 2.618036939, 0.814451892
5.301163217, 2.63188079, 0.701762499
7.105322471, 2.605119164, 0.837102095
6.390066645, 2.608925023, 0.694643176
5.768767672, 2.605077194, 0.577607349
5.278074441, 2.617203306, 0.481768005
7.14447359, 2.615937664, 0.56125723
6.401211529, 2.612432657, 0.443701173
5.745869616, 2.592322452, 0.344700156
5.215570039, 2.58280834, 0.263065834
7.078115733, 2.589119532, 0.280181599
7.30792992, 2.648369009, 2.375854641
6.543898619, 2.656050217, 2.075357422
5.901964251, 2.659550978, 1.832918403
5.358265209, 2.660255631, 1.632309542
7.283417232, 2.642218493, 2.044182481
6.508950686, 2.641865441, 1.777252132
5.901766347, 2.654135225, 1.570668335
5.347355809, 2.647398205, 1.387424536
7.245747615, 2.630985915, 1.728310028
6.512871082, 2.641735572, 1.502235582
5.850119258, 2.628331106, 1.305758587
5.331713654, 2.635136921, 1.152495643
7.225172422, 2.623514962, 1.426595609
6.481601906, 2.627998458, 1.227460858
5.842861886, 2.623232174, 1.060982869
5.348517009, 2.638448872, 0.93018892
7.243489354, 2.630595119, 1.138390283
6.46204205, 2.617572828, 0.961129153
5.840539744, 2.618515872, 0.820171374
5.331482972, 2.626576011, 0.704706134
7.212310984, 2.61927223, 0.848755996
6.466291165, 2.616929714, 0.702053225
5.84217093, 2.616676036, 0.58415039
5.307541552, 2.611558703, 0.483724081
7.20684268, 2.613727668, 0.565524266
6.443425659, 2.606628961, 0.446070816
5.782960897, 2.58773313, 0.346447407
5.238711649, 2.57428494, 0.263833453
7.125486681, 2.581689334, 0.28174187
7.389829023, 2.652427947, 2.399823578
6.595631198, 2.653507962, 2.08917235
5.936449018, 2.653209612, 1.841091275
5.395825315, 2.658300154, 1.641259419
7.354276242, 2.642420534, 2.061784926
6.55479975, 2.637080845, 1.787553603
5.94715678, 2.652642224, 1.580574868
5.389546944, 2.647729875, 1.396257346
7.343769095, 2.641105433, 1.74974982
6.569940669, 2.641440466, 1.513522676
5.919019253, 2.637491495, 1.319324961
5.381201004, 2.6390842, 1.161437056
7.305352831, 2.627289564, 1.440828722
6.526190081, 2.62279233, 1.234375116
5.886030605, 2.620945117, 1.067356631
5.366348074, 2.626805851, 0.931884076
7.284106571, 2.620079374, 1.143505076
6.527038971, 2.620619656, 0.969596052
5.89748732, 2.622347302, 0.82703473
5.368064859, 2.624162911, 0.708473982
7.275493787, 2.616981328, 0.855242591
6.54447154, 2.625231533, 0.709663605
5.874743907, 2.609655913, 0.586604074
5.345084209, 2.609693417, 0.48641371
7.32839526, 2.632399095, 0.574426101
6.517156692, 2.613218318, 0.450617994
5.829204918, 2.586990562, 0.348740666
5.298664447, 2.58359444, 0.266452362
7.151244404, 2.56622944, 0.282447708
7.450194956, 2.648321742, 2.416777285
6.648301064, 2.651028679, 2.103269327
5.983264607, 2.652140233, 1.853078361
5.435157139, 2.656986624, 1.650735842
7.461642711, 2.655178638, 2.089591685
6.639402164, 2.647480206, 1.808401877
5.979262357, 2.644998815, 1.586943386
5.443172434, 2.65337579, 1.408034273
7.40515123, 2.637552106, 1.762438577
6.597090961, 2.628873991, 1.5179122
5.984444845, 2.644669281, 1.33209323
5.404279025, 2.629865415, 1.164671203
7.399516368, 2.63554523, 1.457798997
6.579957706, 2.620981808, 1.243018028
5.953607029, 2.629178371, 1.078142927
5.399267517, 2.622416619, 0.936199095
7.362934539, 2.622949876, 1.154611211
6.588432778, 2.621826891, 0.977516675
5.933639398, 2.616648525, 0.830974776
5.400214851, 2.619383169, 0.711653116
6.578382707, 2.615433842, 0.712467407
5.930112413, 2.612497597, 0.59132959
5.395222827, 2.613705533, 0.490244352
6.588205872, 2.618273972, 0.454973037
5.865445234, 2.58156411, 0.350433318
5.384802116, 2.605176918, 0.270380726
7.224055361, 2.567368008, 0.285011035
7.496171692, 2.638789342, 2.429054172
6.701017014, 2.648251153, 2.117366303
6.033652944, 2.652357199, 1.866155026
5.481475373, 2.658824636, 1.662318096
7.507143706, 2.645450035, 2.10005111
6.678147468, 2.639213088, 1.816741163
6.027394733, 2.644210492, 1.597557659
5.479345968, 2.650235153, 1.41528172
7.487745332, 2.641111987, 1.780159275
6.651511897, 2.626941974, 1.528572252
5.997018117, 2.6282635, 1.333090774
5.461830276, 2.637177281, 1.175324935
7.43816592, 2.623624007, 1.463820618
6.618200332, 2.6127178, 1.248722312
6.007733628, 2.631085033, 1.086477803
5.450901691, 2.626857824, 0.943750347
7.429720823, 2.621082756, 1.163817744
6.639758512, 2.618683748, 0.983935142
5.976172841, 2.613534762, 0.83580454
7.379522582, 2.603373701, 0.865577143
6.643769767, 2.6178542, 0.718675828
5.985553254, 2.615023942, 0.596055165
7.469512268, 2.63145644, 0.584210739
6.627777478, 2.61048368, 0.457150544
5.897131136, 2.573942156, 0.351852952
5.390967837, 2.587779759, 0.270290424
7.289398471, 2.565429542, 0.287277144
7.557511011, 2.634350726, 2.446299944
6.760924452, 2.647973945, 2.133718952
6.101738432, 2.659979988, 1.884680388
5.518293852, 2.655801412, 1.671004877
7.575477431, 2.643431148, 2.116888229
6.72683419, 2.634621938, 1.827778512
6.05864785, 2.635785704, 1.603690265
5.52433269, 2.651111749, 1.424793907
7.552006344, 2.637754611, 1.793504517
6.71235759, 2.627195574, 1.54069548
6.046393043, 2.627819204, 1.342267982
5.504425349, 2.636950234, 1.182744403
7.507442603, 2.622189367, 1.475864093
6.740840611, 2.637258558, 1.270329473
6.067356575, 2.635041938, 1.095793293
5.494591108, 2.627170939, 0.9499146
7.49563009, 2.618503944, 1.172878126
6.695739479, 2.617053404, 0.991036438
6.026933006, 2.613736062, 0.841778237
7.511334323, 2.62399004, 0.880089562
6.703671645, 2.617726138, 0.724283433
6.041978623, 2.617630479, 0.600871578
6.695252044, 2.61336099, 0.461249406
5.928825485, 2.566150292, 0.353272586
5.405195283, 2.574235107, 0.270606508
7.419909384, 2.585805379, 0.292106581
7.602621498, 2.623944225, 2.458284529
6.831626357, 2.651519561, 2.15345453
6.147847261, 2.657664607, 1.896394847
5.57255626, 2.66089097, 1.68495618
7.651180532, 2.6435437, 2.135766448
6.809898331, 2.643086135, 1.848136123
6.113105123, 2.637202424, 1.615955589
5.560581659, 2.647549826, 1.432041354
7.646748565, 2.644552175, 1.814069192
6.776913411, 2.628514926, 1.55365484
6.115618538, 2.635628556, 1.355834354
5.550616549, 2.638172178, 1.190924901
7.606514337, 2.630637633, 1.493746678
6.786551664, 2.631163273, 1.277416701
6.109844224, 2.631243407, 1.10200362
5.545474871, 2.630628206, 0.957311715
7.57842119, 2.621366301, 1.184568862
6.729602226, 2.606516967, 0.994860195
6.0886846, 2.618352713, 0.849277097
7.555982989, 2.61360503, 0.884377341
6.743220563, 2.609355738, 0.72768805
6.075601022, 2.610088097, 0.603416101
7.560929558, 2.611622659, 0.590096281
6.742329308, 2.60792849, 0.463939274
5.968785191, 2.561732138, 0.355183659
5.423003141, 2.562334481, 0.271103194
7.530774509, 2.598558959, 0.296155882
6.887189946, 2.64880122, 2.168397413
6.173658858, 2.646372352, 1.901843544
5.622542194, 2.663607417, 1.69759141
7.744337162, 2.649162496, 2.15949148
6.884028298, 2.647585208, 1.866041118
6.201579311, 2.652833011, 1.637184021
5.618877958, 2.654190664, 1.444950767
7.694521721, 2.634672092, 1.823476474
6.875314035, 2.642443307, 1.574347904
6.181344365, 2.64149749, 1.368602624
5.591539468, 2.636622871, 1.197963855
7.70384788, 2.637865413, 1.511264365
6.807464189, 2.615275209, 1.279836652
6.151457681, 2.62682148, 1.10805051
5.588385743, 2.630011029, 0.96332189
7.658492298, 2.622783349, 1.195821265
6.843925396, 2.626678617, 1.010564829
6.146871214, 2.621058517, 0.85626753
7.608161285, 2.605546734, 0.889544647
6.813438571, 2.612522209, 0.734397149
6.13397113, 2.612901268, 0.608414249
7.638735155, 2.612293912, 0.59554039
6.813664114, 2.611517545, 0.468294317
5.994991825, 2.551227952, 0.356275677
5.450738594, 2.555012808, 0.272096565
7.557624644, 2.581903832, 0.296898884
6.956248814, 2.650891552, 2.187569366
6.222482432, 2.644732293, 1.914375421
5.664738793, 2.662348818, 1.707857476
7.799135441, 2.641208091, 2.172501984
6.949190711, 2.648201889, 1.881493384
6.239211998, 2.646316246, 1.644967791
5.646398046, 2.646032731, 1.449933358
7.796829185, 2.643006205, 1.845791262
6.927255319, 2.638043041, 1.584380916
6.220998007, 2.635901182, 1.375585308
5.63339348, 2.635263448, 1.205193181
7.769636621, 2.633788309, 1.522577921
6.894619752, 2.624512435, 1.294702408
6.194918257, 2.622938211, 1.114424272
5.632239635, 2.629573488, 0.969486202
7.763001679, 2.631992367, 1.210873225
6.914915863, 2.62961336, 1.019851114
6.18868691, 2.616479043, 0.860970218
5.596363175, 2.609255323, 0.732140782
7.684834603, 2.605490457, 0.897570413
6.886529405, 2.616342447, 0.741406714
6.164893401, 2.603756866, 0.610686139
5.690376662, 2.649703728, 0.513309918
7.693944771, 2.60483674, 0.599218831
6.872955806, 2.610087439, 0.471816773
6.027629905, 2.543304245, 0.357749938
5.477574102, 2.547123819, 0.273044815
7.594855906, 2.568630173, 0.298050505
7.030769689, 2.654616481, 2.208432898
6.266033439, 2.64057554, 1.925272582
5.705231454, 2.660040803, 1.717597113
7.907129062, 2.650767869, 2.200308741
6.981770215, 2.636115635, 1.888115699
6.279550092, 2.640723649, 1.653459187
5.704833686, 2.652101819, 1.46284277
7.850229721, 2.634284296, 1.856511157
6.970999155, 2.630241748, 1.592532804
6.276033306, 2.636538152, 1.385959498
5.683306339, 2.637391013, 1.214134594
7.836404192, 2.629644893, 1.534073869
6.945032021, 2.619336318, 1.302653905
6.258425392, 2.627213697, 1.12439339
5.661797782, 2.622247433, 0.97318473
7.798237957, 2.617291787, 1.215111116
6.954469289, 2.620261696, 1.024494314
6.226872309, 2.610134135, 0.865164477
7.781366656, 2.611629226, 0.907905023
6.942014341, 2.613078814, 0.74651364
6.207758875, 2.59944743, 0.614139453
7.766200741, 2.602769473, 0.604221508
6.905215487, 2.598126407, 0.473481919
6.155154631, 2.574894916, 0.364848136
5.620523601, 2.592654535, 0.279772719
7.74199947, 2.591953501, 0.303511482
7.110770687, 2.659925474, 2.230988013
6.358446248, 2.65657713, 1.951153632
5.744012074, 2.656699344, 1.726810322
7.962027681, 2.642027313, 2.213319245
7.067913638, 2.643893954, 1.909209306
6.327985191, 2.638273942, 1.664073346
5.746554093, 2.650087189, 1.471449084
7.910132758, 2.627412482, 1.868762534
7.001019956, 2.61706055, 1.597549251
6.3121342, 2.628950217, 1.392144193
5.743094321, 2.643752522, 1.225168724
7.881758322, 2.617987922, 1.541372817
7.056371076, 2.636628545, 1.322013969
6.292870111, 2.618993727, 1.129132912
5.686874923, 2.612702055, 0.976112749
7.847538917, 2.607077975, 1.221541028
6.984749539, 2.607227676, 1.027771737
6.314538479, 2.624133562, 0.876222093
5.700721071, 2.615449293, 0.743679824
7.844993985, 2.606232552, 0.914391618
7.01712101, 2.616799909, 0.753723418
6.305840531, 2.617809275, 0.623045282
5.718307057, 2.620135746, 0.514369451
7.905722603, 2.622577796, 0.61444758
6.997312398, 2.608300172, 0.479245955
6.210064084, 2.575507683, 0.367632835
5.677504931, 2.597844228, 0.282211025
7.864693592, 2.606224765, 0.308006596
7.16208071, 2.654100073, 2.244521128
6.406568814, 2.653626395, 1.963412998
5.792470863, 2.65757012, 1.738919007
8.063796873, 2.648361441, 2.239340249
7.119625457, 2.638367319, 1.920982415
6.39711963, 2.644089539, 1.680112715
5.784772901, 2.646220625, 1.47914941
8.034026744, 2.641225336, 1.896109145
7.116311024, 2.635302691, 1.622004798
6.370890905, 2.630514986, 1.403316488
5.794044432, 2.645694094, 1.234300396
8.027055501, 2.638933695, 1.568196813
7.095832522, 2.62659253, 1.327891107
6.361977888, 2.624885567, 1.140082643
5.757800749, 2.623923993, 0.986900295
7.959813749, 2.617289444, 1.237761954
7.072621585, 2.615334479, 1.039516234
6.369331841, 2.624017942, 0.882704157
5.736737865, 2.610698657, 0.747329953
7.089515313, 2.619049978, 0.760632788
6.345153781, 2.611337031, 0.626135068
5.763520118, 2.61948776, 0.517711067
7.094217145, 2.619661283, 0.48533019
6.29274011, 2.587197925, 0.372055559
5.714557656, 2.59362532, 0.283655932
7.902088131, 2.591738421, 0.309158218
7.216123328, 2.64897657, 2.25890015
6.436931405, 2.643095662, 1.970223899
5.853281452, 2.663762961, 1.754713044
8.118781056, 2.638852837, 2.25235075
7.164999485, 2.6302095, 1.931038672
6.444767621, 2.640662653, 1.690490959
5.815925281, 2.638924505, 1.485037988
8.120963345, 2.642226483, 1.914704958
7.190464738, 2.637706211, 1.637054256
6.482314598, 2.653272599, 1.426059953
5.840588399, 2.645322623, 1.242480894
8.072512879, 2.626462444, 1.575495879
7.173212887, 2.630241507, 1.340855356
6.411091739, 2.622161256, 1.147436903
5.827947264, 2.634328012, 0.997533643
8.057173963, 2.621938334, 1.25164483
7.162468572, 2.623607707, 1.051533723
6.426938403, 2.624715392, 0.889567513
5.788165404, 2.6126968, 0.752981725
7.144236012, 2.614383772, 0.765639579
6.437044396, 2.626090058, 0.634404794
5.804239794, 2.616538902, 0.520645225
7.139709202, 2.611596775, 0.487891967
6.369997711, 2.596144023, 0.376150696
5.741617635, 2.58469251, 0.284604182
7.962279687, 2.584451332, 0.311201435
6.509174904, 2.649452159, 1.989838836
5.905391476, 2.665638138, 1.767874704
8.192192476, 2.634952742, 2.270463411
7.287832702, 2.64995714, 1.961943084
6.511361623, 2.644647527, 1.705822701
5.888833636, 2.650249919, 1.501571126
8.241419091, 2.653484355, 1.941176574
7.222420138, 2.624317115, 1.642488769
6.514032427, 2.642951346, 1.431247107
5.853154211, 2.629402784, 1.243432066
8.175058523, 2.632118345, 1.593925875
7.227537574, 2.625034189, 1.349498268
6.50047673, 2.635469692, 1.161982106
5.871164239, 2.632199901, 1.003543819
8.134861206, 2.619646332, 1.26245878
7.228220382, 2.622569266, 1.060000564
6.470818119, 2.61950107, 0.894524414
5.827876424, 2.609128688, 0.757102791
7.218638053, 2.616526567, 0.772749221
6.455226349, 2.610435948, 0.635404423
5.858643117, 2.619466689, 0.524801932
8.157384612, 2.622971535, 0.632104143
7.196477398, 2.607357219, 0.491222287
6.380709701, 2.577710902, 0.37631449
5.777798412, 2.579691081, 0.286003938
7.976830688, 2.5621505, 0.31146149
7.340562645, 2.643660742, 2.292732704
6.560102658, 2.646749977, 2.002915617
5.94435968, 2.66130545, 1.777087795
8.313567385, 2.645875073, 2.301841917
7.318731094, 2.635798074, 1.968074854
6.562715274, 2.642079025, 1.717144486
5.939629443, 2.651227103, 1.512442179
8.315531394, 2.649217776, 1.956709424
7.348215049, 2.644533357, 1.669243506
6.560293641, 2.638310221, 1.439626327
5.922172611, 2.638602336, 1.256368656
8.241177991, 2.62552973, 1.605239432
7.290238259, 2.622518615, 1.359696861
6.539655397, 2.628021453, 1.167538689
5.92525628, 2.634648329, 1.011403287
8.244658084, 2.627113949, 1.278241376
7.301490846, 2.62383204, 1.069560074
6.5174872, 2.615150109, 0.899862547
5.891216961, 2.61581934, 0.764285269
8.228677988, 2.622022125, 0.955290239
7.284691997, 2.61521158, 0.7789577
6.5066504, 2.608033432, 0.639675574
5.88760751, 2.610772854, 0.526676499
8.15874111, 2.595816244, 0.63158916
7.243893757, 2.599423134, 0.493912185
6.430300961, 2.574825823, 0.378771572
5.821309464, 2.577727443, 0.287764927
8.015129522, 2.547351704, 0.312650275
7.421836005, 2.647235901, 2.315569866
6.601247448, 2.639830202, 2.012995481
5.984238455, 2.65714999, 1.786564217
8.37421457, 2.636910363, 2.316383064
7.406223716, 2.641667108, 1.989413792
6.601477881, 2.634177618, 1.72516417
5.978017299, 2.646397682, 1.520142621
8.370151906, 2.638361014, 1.967648186
7.399587946, 2.637407986, 1.679067544
6.609317979, 2.634498355, 1.448603979
5.960771494, 2.633911952, 1.262836953
8.316710591, 2.621515507, 1.618377608
7.37711494, 2.628237064, 1.374389764
6.596263278, 2.62729356, 1.176200436
5.93873547, 2.618849477, 1.012327875
8.300796853, 2.616977163, 1.285694222
7.328172297, 2.608062186, 1.07229128
6.613960838, 2.630330682, 0.912064094
5.931023527, 2.611740244, 0.768406393
8.307779631, 2.619178708, 0.963535946
7.348930036, 2.612848979, 0.784965848
6.579406115, 2.613796318, 0.646036879
5.952154779, 2.617573459, 0.531729721
8.257037082, 2.599220922, 0.638578162
7.369375884, 2.618959396, 0.501917745
6.504992807, 2.581605329, 0.382702886
5.907852066, 2.594399414, 0.291648169
8.272669888, 2.601285838, 0.322383445
8.677178651, 2.724986637, 0.006190769
7.506818051, 2.651615222, 2.339534746
6.714863691, 2.661399087, 2.04514241
6.029444747, 2.655107707, 1.797620043
8.444116558, 2.630474018, 2.333475293
7.481022793, 2.642503582, 2.007318788
6.670979161, 2.638214339, 1.741203424
6.046754233, 2.654669922, 1.535543271
8.448071994, 2.634456235, 1.984056154
7.440841752, 2.626411637, 1.686592272
6.659292031, 2.63077045, 1.457781305
6.001194595, 2.629797427, 1.269685646
8.434533299, 2.630234202, 1.639727275
7.440873483, 2.625254413, 1.38476121
6.645586858, 2.623344911, 1.183554814
6.00377443, 2.625558619, 1.022036637
7.41275168, 2.612568871, 1.083489441
6.644146354, 2.618756197, 0.91511448
6.003622036, 2.621748199, 0.776766302
7.401021018, 2.605820997, 0.789672231
6.64855157, 2.617677651, 0.652034715
5.992132867, 2.613244783, 0.53458234
7.43197453, 2.615552877, 0.505632307
6.542617597, 2.573331604, 0.384450136
5.944176426, 2.588626982, 0.293047925
8.381757888, 2.60735739, 0.326321286
7.576500622, 2.650112496, 2.358706698
6.778522013, 2.662595844, 2.062033173
6.061433404, 2.647021588, 1.804727304
8.592600704, 2.647836548, 2.372251693
7.554066013, 2.642265249, 2.02473312
6.704375133, 2.62766487, 1.747807739
6.085233773, 2.649325674, 1.543243713
8.451452306, 2.60708719, 1.982962289
7.510715197, 2.625189713, 1.70059674
6.675544014, 2.613542604, 1.459576835
6.050652647, 2.629372508, 1.278436918
8.490479126, 2.619126185, 1.649033587
7.554893406, 2.639447418, 1.404466865
6.694947497, 2.619118296, 1.190909074
6.056219016, 2.62638963, 1.029587831
8.43013295, 2.600993991, 1.303230385
7.546998788, 2.633881429, 1.101925398
6.678018647, 2.608464679, 0.918673236
8.43576595, 2.602731867, 0.976509136
7.478504427, 2.607341743, 0.797082281
6.681600329, 2.607041478, 0.654488341
8.44819902, 2.602531554, 0.652114854
7.476716001, 2.605547394, 0.508130098
6.526292912, 2.543818639, 0.383030502
5.959427306, 2.573546778, 0.293409159
8.425056106, 2.592504549, 0.327695828
6.831490909, 2.659238353, 2.075654742
6.127069418, 2.653332203, 1.821837531
8.612707288, 2.625127039, 2.375568094
7.639086767, 2.645728101, 2.045336064
6.791214858, 2.637693101, 1.768328546
6.130890974, 2.646858733, 1.552755899
8.546208331, 2.607629738, 2.003308217
7.61391943, 2.635077126, 1.722125938
6.776712925, 2.629202479, 1.479926221
6.126310354, 2.639935192, 1.292705197
8.57746933, 2.617168133, 1.664361519
7.593673075, 2.626882932, 1.410171267
6.786657817, 2.63101692, 1.205781148
6.10146321, 2.623800607, 1.035906279
8.540261316, 2.606304159, 1.31901298
7.5924959, 2.623657155, 1.107387924
6.7544409, 2.614460046, 0.92807861
6.118143208, 2.627178383, 0.789482775
8.438007371, 2.575098457, 0.975849491
7.564530747, 2.611333443, 0.805393552
6.726721054, 2.600895951, 0.65812339
8.464730035, 2.579216726, 0.652777002
7.546936689, 2.604080621, 0.512357021
6.575050184, 2.539614316, 0.385432958
5.970049393, 2.556431037, 0.29354461
8.478859439, 2.580611143, 0.329478991
6.904252199, 2.663199131, 2.095269915
6.184822181, 2.655838911, 1.836578592
7.707691791, 2.643033757, 2.061524205
6.849156195, 2.636043368, 1.781301495
6.174799441, 2.643369528, 1.561815091
7.700602085, 2.638649994, 1.73989277
6.864320446, 2.638991321, 1.497283211
6.163269708, 2.633471282, 1.298792978
8.513920513, 2.569252676, 1.650493424
7.66599097, 2.625594426, 1.422098394
6.830614671, 2.62398084, 1.212154912
6.16947003, 2.630647073, 1.046077334
8.551058208, 2.580948147, 1.319451313
7.68955235, 2.630815248, 1.120361353
6.823553115, 2.61716908, 0.936467129
8.573373533, 2.587683809, 0.990581791
7.652534408, 2.615465314, 0.813905096
6.771866932, 2.594497971, 0.661758439
8.544218255, 2.574816765, 0.658294663
7.631383715, 2.60704651, 0.517544652
6.70310822, 2.565471747, 0.392476587
6.072575987, 2.57831636, 0.298195442
8.521184746, 2.564955421, 0.33081637
9.040359766, 2.717618813, 0.006425604
9.059585239, 2.71926086, -0.340229233
7.799534016, 2.647812592, 2.420451391
6.937555526, 2.651623138, 2.102897881
6.231109211, 2.65310286, 1.847897635
7.753402294, 2.632151855, 2.071580463
6.91804747, 2.638218124, 1.797104951
6.22860593, 2.643822155, 1.573365636
7.76144767, 2.632919264, 1.751806906
6.945640731, 2.645825456, 1.513243547
6.199342942, 2.626422362, 1.304690501
7.764490446, 2.632742579, 1.43886554
6.881967618, 2.619507304, 1.219836161
6.1966232, 2.619786742, 1.049313511
7.760451792, 2.62850428, 1.129511142
6.851948558, 2.603974427, 0.939263303
7.734036294, 2.61684915, 0.821715747
6.861725714, 2.604812203, 0.669755534
7.687558967, 2.5999268, 0.520810927
6.741757267, 2.556578269, 0.394278435
6.14767048, 2.587968031, 0.301491668
9.167513918, 2.725203699, 0.006510008
9.022857404, 2.678088919, -0.33853977
7.836722874, 2.63365184, 2.429473388
7.033839821, 2.66372093, 2.129596231
6.261438711, 2.643353781, 1.854478464
7.899283275, 2.654676409, 2.108371313
6.962471127, 2.630720726, 1.806539771
6.304917062, 2.653414858, 1.590578265
7.814913601, 2.62434941, 1.76204901
6.989479569, 2.637998538, 1.521024218
6.275256246, 2.635905683, 1.31895878
7.850965884, 2.635236291, 1.453385588
6.964742096, 2.626579208, 1.233073876
6.244726066, 2.617569626, 1.056094254
7.797595825, 2.61444545, 1.133744503
6.949947324, 2.616843953, 0.951591928
7.773162513, 2.60353708, 0.825020229
6.910697978, 2.599173871, 0.673754052
6.339571354, 2.649783861, 0.561886036
7.793916468, 2.609278204, 0.527471567
6.776675905, 2.546067142, 0.395861863
6.16480052, 2.572942731, 0.301943203
9.242990765, 2.716805411, 0.006557655
9.035825937, 2.651801615, -0.338719507
7.934893814, 2.639578284, 2.457385527
7.080715519, 2.656662743, 2.14131069
6.318464717, 2.644618023, 1.868956195
7.957984464, 2.647259603, 2.12186151
7.032396366, 2.632514746, 1.822579023
6.345388473, 2.64756143, 1.598731584
7.883247667, 2.620411283, 1.775635295
7.048020592, 2.63541851, 1.531997074
6.336784648, 2.638908614, 1.330183169
7.925378183, 2.633186903, 1.465658425
7.033762078, 2.627988212, 1.243860171
6.327544442, 2.629490076, 1.068731033
7.902421543, 2.622650114, 1.147810484
7.011844628, 2.615616282, 0.958963711
6.31135193, 2.618886521, 0.810205999
7.889722698, 2.615684268, 0.836535847
7.005425989, 2.610297339, 0.682205514
6.345829561, 2.629558602, 0.561723076
7.851144386, 2.601677784, 0.530801858
6.979098744, 2.597713662, 0.407219021
6.241896519, 2.582662721, 0.30532976
9.035281305, 2.621561252, -0.338396003
7.97576118, 2.626023734, 2.467535244
7.150161193, 2.657722711, 2.159836052
6.417436961, 2.662935206, 1.895806059
8.008427175, 2.636778837, 2.133143958
7.113331629, 2.637958961, 1.84144878
6.375982517, 2.637389105, 1.604393666
7.981355805, 2.625858455, 1.79591041
7.113961993, 2.635227201, 1.544565787
6.38114867, 2.634440751, 1.337792894
7.991429509, 2.627936228, 1.476375577
7.110257312, 2.631738016, 1.255953954
6.3593349, 2.619850632, 1.072737779
7.999840448, 2.627762688, 1.16078403
7.064494988, 2.610595143, 0.965064484
6.371704278, 2.62104481, 0.816917481
7.966722944, 2.614111623, 0.843845761
7.077864136, 2.612587408, 0.688475981
6.375992919, 2.619166733, 0.563679122
7.961500455, 2.611166698, 0.537718679
7.036688861, 2.594598077, 0.410112916
6.310791268, 2.588521585, 0.308309903
9.469012229, 2.720232208, 0.006706043
9.037517036, 2.592176006, -0.338180323
7.220581844, 2.658714004, 2.178633924
6.448773495, 2.652776669, 1.902650103
8.091140666, 2.6365257, 2.153011138
7.167000246, 2.632878186, 1.853242393
6.451633696, 2.645530953, 1.621379682
8.111186368, 2.641021857, 1.823292188
7.177208653, 2.633643059, 1.55653607
6.431904544, 2.632328043, 1.346734306
8.063143165, 2.624133671, 1.48812997
7.144233329, 2.619420801, 1.26053004
6.400272384, 2.61377608, 1.078285659
8.053085532, 2.617907545, 1.167338992
7.139535119, 2.613458281, 0.974215586
6.419255321, 2.61760771, 0.821980538
8.052303781, 2.61485684, 0.852056955
7.118582009, 2.602829962, 0.691656606
6.404306494, 2.607862501, 0.565472209
8.030221873, 2.606446538, 0.54181757
7.117772638, 2.599717715, 0.414371817
6.383481515, 2.59548677, 0.311470648
9.069463938, 2.57125144, -0.339078953
7.266669811, 2.650396006, 2.190075873
6.513160871, 2.655928851, 1.919233786
8.240359937, 2.657211623, 2.190537985
7.294673847, 2.654408976, 1.88414156
6.515663245, 2.648465065, 1.63542158
8.179751346, 2.635618746, 1.836878588
7.240511924, 2.63169533, 1.568506352
6.487256028, 2.63177416, 1.356627008
8.137720122, 2.620821726, 1.500402805
7.232910551, 2.626789093, 1.27474837
6.469623504, 2.618968281, 1.088610735
8.188388946, 2.634143453, 1.185774947
7.223051392, 2.618928527, 0.984510679
6.452113925, 2.60794913, 0.825159612
8.173013591, 2.626363999, 0.863973117
7.190205496, 2.604037867, 0.697836177
6.47697295, 2.614315261, 0.571177505
8.1208429, 2.608348414, 0.547389413
7.181113198, 2.597909871, 0.417593329
6.430329925, 2.591574163, 0.313367118
9.658830014, 2.710717536, 0.006828565
8.508619632, 2.726020116, -0.080154743
9.110989949, 2.552851632, -0.340337088
8.244553057, 2.630667159, 2.543095099
7.345351831, 2.65358932, 2.211325643
6.571366364, 2.656180223, 1.933974849
8.303888104, 2.64959959, 2.205254372
7.324724434, 2.639924488, 1.889802452
6.56893042, 2.646663036, 1.64674563
8.231589235, 2.624472794, 1.846702626
7.348124683, 2.64531561, 1.590052952
6.557237684, 2.63676546, 1.3695636
8.26396657, 2.633524786, 1.522182819
7.26600036, 2.613602366, 1.279160904
6.535398205, 2.622287279, 1.098319495
8.255901752, 2.627939122, 1.194378401
7.27025974, 2.610836096, 0.989848869
6.536595743, 2.618795075, 0.834932509
8.212322915, 2.611226399, 0.867277598
7.228157018, 2.592725939, 0.700744227
6.521977481, 2.609240291, 0.574437641
8.157339482, 2.592489494, 0.549310769
7.278348669, 2.607862503, 0.422780483
6.525454636, 2.606668575, 0.317611565
8.583667585, 2.721055283, -0.0807827
9.30755043, 2.577156073, -0.347382506
7.399660643, 2.647572745, 2.225219487
6.60814167, 2.647488079, 1.942398297
8.38408685, 2.646876265, 2.224385792
7.398685386, 2.640961986, 1.906785128
6.633101752, 2.64889342, 1.660787412
8.35897566, 2.636863223, 1.873457244
7.385741432, 2.633289913, 1.596437087
6.609070772, 2.634082346, 1.378695269
8.351852792, 2.633334116, 1.536875721
7.40595164, 2.638310361, 1.302367853
6.593909111, 2.622306367, 1.106795395
8.344240323, 2.627891898, 1.205986286
7.394119071, 2.629733122, 1.005609172
6.586131467, 2.615220317, 0.840231063
8.309512072, 2.614085774, 0.876690363
7.36745445, 2.617208502, 0.713466839
6.567011928, 2.6039136, 0.577697777
8.289965872, 2.606664821, 0.5577006
7.380417258, 2.618912336, 0.428240656
6.555713161, 2.595462125, 0.318695267
8.660673823, 2.716253958, -0.081428606
9.50434306, 2.600277855, -0.354427924
6.652994911, 2.641799795, 1.95319091
8.435660457, 2.634725808, 2.235913571
7.464475118, 2.638655174, 1.921645043
6.671989596, 2.640718293, 1.668487854
8.430504789, 2.63101648, 1.887670687
7.43259296, 2.624320727, 1.604816306
6.661862159, 2.631466505, 1.388017198
8.421949547, 2.627056083, 1.548284288
7.452155188, 2.629033917, 1.309068486
6.637773352, 2.616194083, 1.11280557
8.407119032, 2.61937098, 1.213906909
7.432090383, 2.617580171, 1.009676355
6.669897295, 2.624821325, 0.849886181
8.399195245, 2.614007777, 0.885302043
7.408329248, 2.606159782, 0.716647462
6.661238206, 2.617654948, 0.585277581
8.407508384, 2.615307358, 0.565065766
7.442113373, 2.615125852, 0.431352942
6.578524325, 2.581175348, 0.319417735
10.04533729, 2.719705512, 0.00708382
8.791212102, 2.727599235, -0.082576875
9.58945416, 2.591967619, -0.357303609
7.561031738, 2.653091439, 2.268808602
6.689795162, 2.632681407, 1.961614356
8.4955743, 2.624859332, 2.249648866
7.548663951, 2.642390587, 1.941222426
6.722677101, 2.63695322, 1.679132409
8.474043941, 2.616101421, 1.895613483
7.483158923, 2.616382448, 1.613993515
6.7494382, 2.642150399, 1.404568452
8.434675536, 2.602657698, 1.549148674
7.524449717, 2.628608754, 1.32034509
6.700068171, 2.617026727, 1.1218979
8.433102371, 2.59910979, 1.216501618
7.473802373, 2.606525364, 1.014251848
6.702898437, 2.614087888, 0.853065314
9.793879018, 2.631127664, 1.121743124
8.422390539, 2.592911217, 0.886904216
7.507512543, 2.615195907, 0.725462453
6.721246529, 2.617460291, 0.589841806
8.464137249, 2.604469369, 0.568332041
7.515171939, 2.614922792, 0.435120462
6.631103838, 2.578357973, 0.321585109
10.05363389, 2.688874147, 0.00708382
9.674603814, 2.583159458, -0.360179295
7.641845571, 2.655145026, 2.290603157
6.793113552, 2.649301049, 1.989516963
8.584246548, 2.623433511, 2.270987802
7.613663291, 2.638951003, 1.955846427
6.803362757, 2.644546916, 1.69725091
8.525053588, 2.60322859, 1.905228547
7.581896281, 2.624828035, 1.633544913
6.790462872, 2.634213353, 1.411417148
8.502911467, 2.595169561, 1.560211534
7.562314102, 2.615831823, 1.325574802
6.77717342, 2.623208086, 1.133455838
9.882033549, 2.622331369, 1.510303477
8.509262712, 2.594023409, 1.22633412
7.566144347, 2.612721797, 1.025690812
6.769242295, 2.616063858, 0.860483232
8.432209033, 2.567639166, 0.887104487
7.562572563, 2.608386244, 0.730006234
6.766438923, 2.611180515, 0.593101942
8.479725134, 2.580814168, 0.568844403
7.580746449, 2.611694183, 0.43845114
6.706099828, 2.583862155, 0.324836184
10.20559206, 2.699995068, 0.392447424
8.933130145, 2.711655076, -0.083752062
10.3405444, 2.727009886, -0.384658536
7.70636573, 2.651093636, 2.307493921
6.878598075, 2.658355919, 2.012155044
7.68698426, 2.637975927, 1.972593422
6.859617035, 2.642217414, 1.709254451
7.690951795, 2.636187074, 1.655290952
6.84524702, 2.631332951, 1.421119591
8.570237969, 2.587002576, 1.571101542
7.714038026, 2.641843431, 1.350742981
6.8589916, 2.630710068, 1.145784461
9.979984741, 2.615576338, 1.524040083
8.536149947, 2.573624283, 1.229065442
7.644516315, 2.613562853, 1.035223264
6.834733443, 2.617301718, 0.867783489
8.863049379, 2.669146605, 0.931564902
7.637451741, 2.60802149, 0.736458437
6.833066938, 2.612835338, 0.598236703
8.610874897, 2.591891722, 0.577106143
7.635975402, 2.604541664, 0.441181241
6.752259928, 2.577884608, 0.326687475
9.054419924, 2.718162652, -0.084810626
10.49972861, 2.734564639, -0.390266111
7.77821902, 2.649152695, 2.326564072
6.949786859, 2.661390738, 2.030581462
7.783373524, 2.644391077, 1.995236989
6.930480028, 2.64512455, 1.724881714
7.74632772, 2.628638063, 1.665465704
6.884480419, 2.622200753, 1.427587886
7.752004706, 2.628301603, 1.355972693
6.901204032, 2.622641437, 1.151486363
7.76806087, 2.629211344, 1.050856488
6.926292204, 2.628026039, 0.878380539
7.736927989, 2.615513797, 0.745273426
6.875535881, 2.604924598, 0.60125234
7.718666739, 2.606338409, 0.44549477
6.853573286, 2.592500969, 0.331202855
9.122149846, 2.70801495, -0.085366819
10.58549748, 2.722251371, -0.393141797
7.860161088, 2.650177162, 2.348630904
7.010234251, 2.659906581, 2.045849071
7.872505194, 2.647760875, 2.01599371
6.991403679, 2.643831723, 1.738017625
7.837955549, 2.632943426, 1.683421126
6.99352884, 2.639195678, 1.448514719
7.844207208, 2.632758207, 1.370681331
6.945280294, 2.615034643, 1.157496537
7.838164273, 2.626164457, 1.059245009
6.966855973, 2.6189943, 0.882501663
7.811967187, 2.614203186, 0.75172557
6.962808808, 2.613590162, 0.608180129
7.786288021, 2.6025876, 0.448934673
6.906396009, 2.588289911, 0.333370229
9.209092888, 2.703109527, -0.08610243
7.062610064, 2.655021149, 2.058747515
7.896266173, 2.628814179, 2.020003436
7.04691127, 2.640139459, 1.749794668
7.901786513, 2.627435444, 1.695391406
7.026421464, 2.627010088, 1.453651211
7.931827673, 2.635118595, 1.38457279
7.036587153, 2.624793552, 1.171366179
7.928092078, 2.629268736, 1.070302625
7.032555617, 2.619095917, 0.889801862
7.877617838, 2.609325095, 0.757269041
7.012832055, 2.607848593, 0.611847781
7.851114467, 2.59750543, 0.452210753
6.985479949, 2.593514531, 0.336801907
10.75128529, 2.699451361, 0.007545319
9.197175591, 2.668991308, -0.085914042
10.76000905, 2.696851031, -0.399001022
8.03889827, 2.6556201, 2.397123812
7.124062316, 2.653206312, 2.074278104
8.015049705, 2.641072134, 2.048308011
7.122550783, 2.643587598, 1.766554184
7.964726626, 2.62125413, 1.70716225
7.101652806, 2.630332678, 1.467538973
8.006415115, 2.632651213, 1.396176264
7.086312735, 2.618604893, 1.178300942
8.012457, 2.629989744, 1.080597658
7.078755843, 2.611600577, 0.894629421
7.952773668, 2.607170896, 0.763721243
7.108712142, 2.618706216, 0.619509124
7.952990592, 2.604167964, 0.457616328
7.031844647, 2.586209074, 0.338653227
9.46003611, 2.713833422, -0.088291321
10.77211259, 2.66478702, -0.399144789
8.073529084, 2.639615856, 2.405024288
7.188284837, 2.652040928, 2.090598571
8.128439601, 2.650817832, 2.075197338
7.160795631, 2.632815265, 1.774028128
8.077083643, 2.630795282, 1.729506721
7.176970323, 2.633218016, 1.481426854
8.091381764, 2.633109186, 1.409577535
7.175035844, 2.626400444, 1.191708291
8.050675906, 2.615201823, 1.084664841
7.131504836, 2.606232415, 0.900281193
8.049776651, 2.611648272, 0.772263543
7.187870396, 2.622850215, 0.625703417
8.03693278, 2.604381, 0.461984454
7.101695377, 2.587192245, 0.34163337
9.588571051, 2.718896264, -0.089412678
8.121869301, 2.627866856, 2.41701126
7.249848361, 2.649512739, 2.106129395
8.222541787, 2.653624542, 2.097133514
7.28964703, 2.654831202, 1.803923672
8.177449519, 2.635763285, 1.749257676
7.248681391, 2.634324515, 1.494553587
8.156704049, 2.626719726, 1.419546649
7.222073249, 2.618520222, 1.19818076
8.138926852, 2.61629206, 1.095468301
7.240312597, 2.620844929, 0.912997725
8.106109621, 2.602464938, 0.776898222
7.2221286, 2.610271542, 0.627985501
8.113344189, 2.60166407, 0.465915768
7.186653156, 2.593196043, 0.34533598
9.66041618, 2.707275434, -0.090004761
8.500464459, 2.718275643, -0.162945283
8.270094847, 2.647825318, 2.458693263
7.330513355, 2.65352746, 2.127188191
8.268599166, 2.640506263, 2.106804249
7.342653046, 2.648648897, 1.815021224
8.205101907, 2.616915362, 1.753447285
7.315847122, 2.633353188, 1.506729265
8.256843445, 2.631036409, 1.435562775
7.28121791, 2.614717425, 1.206656659
8.203629096, 2.609348738, 1.103094239
7.293188679, 2.614705965, 0.918649497
8.191883858, 2.602307127, 0.784350054
7.256377159, 2.597507145, 0.630267643
8.247870993, 2.616923375, 0.47317779
7.265128706, 2.596349311, 0.348722508
9.799737988, 2.713920948, -0.091224801
8.593603871, 2.719027157, -0.164570001
8.335048751, 2.640456183, 2.475584026
7.397648421, 2.652188003, 2.144298301
8.369323419, 2.644404333, 2.130391237
7.393854576, 2.641510995, 1.825665898
8.375690414, 2.643040037, 1.788161149
7.401569319, 2.638587414, 1.522709629
8.346735031, 2.63150019, 1.449781106
7.383229638, 2.625806008, 1.222221458
8.371493537, 2.63448791, 1.124573964
7.346094692, 2.608267066, 0.924301269
8.298633594, 2.608216303, 0.793801145
7.36670546, 2.611531692, 0.639151536
8.293967781, 2.603569065, 0.475361853
7.354049273, 2.602711449, 0.35260575
8.698277412, 2.722816788, -0.166413767
7.49848142, 2.662404914, 2.171148049
8.415426327, 2.630602628, 2.140061974
7.473546513, 2.64415468, 1.843331404
8.432399128, 2.632516142, 1.798535338
7.470728454, 2.637437494, 1.535265705
8.419753633, 2.62614936, 1.461057709
7.466738059, 2.6297282, 1.234704101
8.420260647, 2.621470526, 1.130039235
7.455239245, 2.621291463, 0.937017742
8.393132818, 2.609650782, 0.802070871
7.467783491, 2.621602062, 0.647220396
8.370573958, 2.599432673, 0.479293166
7.408194958, 2.596327249, 0.354818275
10.0150598, 2.707498276, -0.093072798
8.776311409, 2.717708342, -0.167746392
10.12699328, 2.732828066, -0.475029882
7.536647858, 2.649947482, 2.179834828
8.491230827, 2.625729628, 2.157280798
7.520231171, 2.634740088, 1.85284359
8.442308548, 2.607211664, 1.798934332
7.525121725, 2.630704035, 1.544777891
8.472077878, 2.613976121, 1.468738841
7.510223038, 2.619171934, 1.240560139
8.438690807, 2.598836465, 1.131437321
7.517640298, 2.617344734, 0.943847003
8.427752173, 2.592086105, 0.804615394
7.536041672, 2.619622745, 0.652436577
8.484457748, 2.606285414, 0.485353975
7.460482785, 2.588980068, 0.356940498
10.14779119, 2.712277596, 0.289734007
10.03008188, 2.678565705, -0.093135592
8.850571159, 2.710975251, -0.169005988
10.16525386, 2.709722541, -0.47643235
7.616718597, 2.651872389, 2.200630175
8.532700547, 2.609899313, 2.165772077
7.615699476, 2.641983301, 1.874359317
8.49150209, 2.593894799, 1.807712547
7.622218981, 2.638433742, 1.563041348
8.466847301, 2.583940258, 1.466450856
7.561184235, 2.610953579, 1.247649039
9.892651864, 2.621938014, 1.410830522
8.492168884, 2.586808151, 1.137538095
7.569759681, 2.609479345, 0.949380997
9.574225936, 2.534323998, 0.99675343
8.447097871, 2.569696009, 0.805705862
7.574200836, 2.606869755, 0.655044698
8.495280256, 2.581114184, 0.485517769
7.516573767, 2.582634707, 0.359243353
10.1734614, 2.685724629, 0.290230305
8.937311085, 2.707580199, -0.170502914
10.1967037, 2.684627532, -0.477518138
7.700519491, 2.65458834, 2.222478614
7.71128209, 2.648665016, 1.895875044
7.681357015, 2.632542337, 1.573504707
7.657977, 2.618109148, 1.262289133
9.912149013, 2.59458569, 1.412469291
8.536154472, 2.571614762, 1.142367858
7.69238744, 2.625375445, 0.963745954
9.553077115, 2.497389217, 0.993749355
7.665182491, 2.611909208, 0.662217044
8.770914674, 2.635494348, 0.500806241
7.631332314, 2.595915705, 0.364345719
9.062424402, 2.715156626, -0.172730041
10.36731983, 2.695564131, -0.485118595
7.75245226, 2.645908561, 2.23511361
7.776545362, 2.644436901, 1.909916943
7.778646673, 2.639245836, 1.591768047
7.738037915, 2.618993095, 1.274155463
7.760616559, 2.622106956, 0.971281651
7.729823085, 2.607494628, 0.667107248
7.667662973, 2.582055347, 0.365700325
10.48235901, 2.696239222, -0.097100716
9.078380556, 2.689612823, -0.172876087
10.51971261, 2.700758536, -0.491859492
7.835478963, 2.647434258, 2.256698834
7.84924001, 2.642318997, 1.925770588
7.809042633, 2.622870631, 1.596333882
7.820048985, 2.620038179, 1.286329832
7.825130537, 2.617184293, 0.97834641
7.795453496, 2.603023516, 0.67207899
7.719143609, 2.573050835, 0.367777398
10.60107002, 2.692125548, -0.098123398
9.246828679, 2.708687077, -0.175924686
10.55796816, 2.676080636, -0.49326196
7.94694934, 2.657961639, 2.286444173
7.931234763, 2.64285871, 1.943889089
7.910212557, 2.629873041, 1.615358254
7.919019138, 2.626202554, 1.301278198
7.854805738, 2.600342816, 0.981054547
7.919800586, 2.617565776, 0.682103954
7.819023123, 2.579717307, 0.372157325
10.61897807, 2.66202078, -0.09821311
9.436605176, 2.732871275, -0.179374901
10.7551034, 2.690958868, -0.502083983
8.011849751, 2.652366404, 2.302764643
7.997581026, 2.63773379, 1.958157487
8.022689127, 2.63996127, 1.636665603
7.983366037, 2.620383024, 1.310524667
7.999580269, 2.621066055, 0.998127583
7.966632454, 2.605960162, 0.68544557
7.943705709, 2.593857209, 0.377711226
10.58632653, 2.619342401, -0.097836327
9.533376895, 2.729223831, -0.181054381
8.092374548, 2.651504204, 2.323559989
8.10841464, 2.646733935, 1.983296938
8.076491249, 2.630231858, 1.645987531
8.069364576, 2.621214136, 1.323315468
8.086932541, 2.622240602, 1.008018258
8.056137818, 2.607905025, 0.692454898
7.993452291, 2.582989591, 0.379697999
9.610973487, 2.719563386, -0.182368753
8.172968354, 2.650172975, 2.344355568
8.186010199, 2.644300185, 2.000283066
8.160209544, 2.629833151, 1.661397238
8.182720592, 2.630310694, 1.340575422
8.168692847, 2.62108313, 1.017202379
8.094474172, 2.592906391, 0.695063018
8.048914633, 2.573666401, 0.381955673
9.648158535, 2.698142851, -0.1829164
