x	y	z
1.345142018	17.25491367	-0.482831103
2.62866037	17.32273202	-0.79348084
1.978134746	17.22660836	-0.953356916
2.647961161	17.3645467	5.161750064
1.365242518	17.33013202	2.711355771
3.301730649	17.30438173	1.948620598
2.012722605	17.2520392	0.949795513
1.39093233	17.31649062	0.785223951
2.024380898	17.28904565	0.314479889
1.389786216	17.27954843	0.150375543
2.027395788	17.25742332	-0.317255912
1.397992295	17.24971064	-0.482803238
2.029806521	17.21054248	-0.952807957
2.057998799	17.36417084	2.896620558
1.418887888	17.3317706	2.712280595
3.359376915	17.3177429	2.605876188
3.354425698	17.29221915	1.948400657
1.443885979	17.31014996	0.78513365
2.07729422	17.28176039	0.314461829
1.442709258	17.2742054	0.150366871
2.079373579	17.24318022	-0.317109851
1.450990862	17.24633626	-0.482831103
2.082718121	17.2052259	-0.952862854
1.47255614	17.33324272	2.713205182
2.114495829	17.30874678	2.234404581
3.415345025	17.32182889	1.952908319
1.498535618	17.32355367	0.785946419
2.130059178	17.27332067	0.314425679
1.496389279	17.27766809	0.150436265
2.132756301	17.2406897	-0.317182896
1.506413908	17.27068278	-0.483639819
2.134385821	17.18983611	-0.952368731
2.808741531	17.34606993	5.163723693
2.159304542	17.34650036	3.558965315
3.470626408	17.32202365	2.609675627
3.469838289	17.31809001	1.953677933
2.171795521	17.23575627	0.949959307
1.552122151	17.32384958	0.786172201
2.183670215	17.27166488	0.31451601
1.549300044	17.27199981	0.150427593
2.185011	17.22910634	-0.317091612
1.55939257	17.26597988	-0.483639819
2.186735334	17.18023653	-0.952204044
2.863976768	17.34967739	5.167389139
1.565678935	17.32282162	3.370545645
1.579779992	17.33372112	2.71474632
3.524937281	17.3171108	2.61055253
3.52354791	17.31028605	1.954007785
1.60471055	17.31303849	0.785901239
2.238061538	17.27579167	0.314714702
1.602559742	17.27015335	0.15045361
1.61272839	17.26509499	-0.483751369
3.582254894	17.32655974	2.613621453
2.274487821	17.29445376	2.235167045
3.576034722	17.2964734	1.953677933
2.279673534	17.28487701	1.59096475
1.657723345	17.30703914	0.785856118
2.291841496	17.274791	0.314823093
1.655822552	17.26814236	0.150479628
1.665497264	17.25807556	-0.483695609
3.638240981	17.32904251	2.615667324
3.627857584	17.27958557	1.95301823
1.711206078	17.30584771	0.78603672
1.709285171	17.2679562	0.150523005
1.718535568	17.25388041	-0.483723504
3.04250907	17.43127426	5.199812158
3.698286913	17.32050553	4.672818125
2.369085923	17.2637263	2.886651323
3.693450825	17.32747352	2.617128591
2.385164149	17.31358039	2.239488382
3.682303818	17.27517889	1.953787845
1.764696938	17.30449175	0.786217322
1.762762233	17.26760359	0.150566382
1.77125739	17.24653764	-0.483667714
3.101177011	17.45114149	5.208552107
2.418431518	17.40498834	4.975414512
3.7512033	17.30813268	4.672563016
1.769481747	17.33408225	4.051524229
1.786268185	17.38140788	3.385955353
3.744710604	17.30735885	2.615813474
2.439239098	17.31305783	2.240378161
3.736967539	17.27157087	1.95466737
1.818717706	17.30793799	0.786623706
1.816880905	17.27305455	0.150661794
2.449034543	17.19356275	-0.317091612
1.825002054	17.24897525	-0.483890814
2.467241805	17.26526279	-0.958901579
3.152993994	17.43210396	5.20573257
1.838034769	17.36120253	3.383101722
3.809036015	17.34699895	2.623558501
3.14224399	17.3036865	2.424399875
1.854490067	17.30600056	2.063723329
3.78951202	17.25808414	1.954447548
2.510424001	17.34306732	0.958258776
1.872561241	17.30923032	0.78693979
2.52017663	17.3591545	0.316900345
1.870618851	17.27435842	0.150722517
2.517615366	17.29480173	-0.319099662
1.878778456	17.2512445	-0.484113914
2.518900798	17.24872121	-0.958407516
2.521447791	17.36411254	4.968058823
3.85944142	17.3226794	2.621658782
3.195676024	17.29591418	2.424672867
2.546001516	17.30169047	2.24088647
1.914474066	17.28524938	1.422156893
2.563766104	17.33627312	0.958313375
1.925435394	17.30141647	0.786849488
2.572835322	17.3473843	0.316828104
1.925267707	17.28344568	0.150852619
2.571104262	17.28996301	-0.319154439
1.932585767	17.25334541	-0.484337014
2.577699914	17.28041405	-0.960603411
2.579752947	17.30083939	4.245687124
1.929700284	17.32383755	4.05310971
2.592448916	17.31140855	2.899725721
3.915185559	17.32233658	2.623412352
3.251102918	17.29868515	2.426448132
1.966124099	17.34264553	2.06949282
3.91417891	17.317882	1.963902632
1.965691323	17.26344999	1.420852863
2.616344519	17.32437624	0.958094924
1.97896047	17.29939855	0.787030091
2.625145893	17.33347736	0.316719713
1.978852181	17.28242349	0.150895996
2.624137031	17.28199382	-0.319154439
1.986309551	17.25428805	-0.48453222
2.637769297	17.31881834	-0.963183636
3.968753483	17.31217227	2.623704653
3.305274799	17.29446707	2.427267575
3.967512995	17.30676069	1.964012543
2.021193121	17.27911613	1.422646008
2.03202508	17.29324689	0.787030091
2.032214968	17.27925122	0.150922013
2.039704955	17.25208306	-0.48464374
4.02296783	17.30473111	2.624435403
3.362096965	17.30369525	2.429998899
4.023066591	17.3051565	1.965221922
2.075858831	17.28668889	1.423786962
2.084591917	17.28296341	0.786849489
2.085816814	17.27789995	0.150965391
2.092262722	17.24276697	-0.484560085
3.407395318	17.28409259	3.091728565
4.078308787	17.30193762	2.625896673
3.419966291	17.317594	2.433412814
2.766262959	17.32007573	2.24749567
2.124448901	17.31395759	2.068315507
4.076366976	17.29370032	1.965331833
2.129858804	17.28815189	1.424439036
2.136992032	17.2715293	0.786623706
2.139797915	17.27935771	0.151034785
2.144165483	17.22833105	-0.484337014
2.138070137	17.42551823	4.790318953
4.133440255	17.29800298	2.627212027
3.476588246	17.32450369	2.435871147
2.820662661	17.3193397	2.248512525
4.130559363	17.28594576	1.965881507
2.185760815	17.30427999	1.426313603
2.189970245	17.26489165	0.786623706
2.192926128	17.27370436	0.151043458
4.210393129	17.33235352	5.451779278
4.193476319	17.31408542	2.631596069
3.532690964	17.32831722	2.437919404
2.871672751	17.29788361	2.246860283
2.231153247	17.30453685	2.068786386
4.188485718	17.29347996	1.968190354
2.242670403	17.25611155	0.786533406
2.247329581	17.27780278	0.15113887
4.259890485	17.30449823	5.447102462
2.905011234	17.37334177	4.987401247
4.247990456	17.30690147	2.632472733
3.587443792	17.32515694	2.439012074
2.924232079	17.28605911	2.246478816
2.285012325	17.30351642	2.069492819
4.244838833	17.29406134	1.969729583
2.291896729	17.29054276	1.426313603
4.315415783	17.32565746	4.710829199
3.638403029	17.36390991	4.48850566
2.322866567	17.25185999	2.715054358
4.299873268	17.28898813	2.631741982
3.641802802	17.3198866	2.439831282
4.30363322	17.30410643	1.972368162
2.344664554	17.28145418	1.426150643
4.379577557	17.33181086	5.464056405
3.013366849	17.36561697	4.990398165
3.692666176	17.35740646	4.489732083
3.689569733	17.31167428	3.106421586
4.354103407	17.2805118	2.632472735
3.696163287	17.31444405	2.440650726
3.039499963	17.32054642	2.253342171
4.354758491	17.28311079	1.971488635
4.386501363	17.29691728	-0.641852429
4.43747299	17.33682122	5.469902427
2.440257779	17.31946801	2.727999296
4.415906061	17.30157975	2.637733678
3.751783157	17.314641	2.442289614
3.096462162	17.33262132	2.256138581
2.445285574	17.2896202	2.070434812
4.417102653	17.30626591	1.975666444
2.459608973	17.25189211	0.151164887
2.476788914	17.29677229	-0.487460328
2.494226905	17.31776784	2.728924121
4.474412684	17.30902104	2.640948515
3.800418371	17.28273101	2.439421677
3.151929964	17.33572734	2.257790823
2.499312306	17.28891623	2.071259025
4.473410408	17.30514374	1.977095645
2.521350767	17.31754625	0.791003634
2.525789352	17.33530127	0.151962919
2.529119516	17.2841467	-0.487320883
4.533006917	17.31626724	2.644163589
2.554083342	17.29295532	2.072671894
4.528998007	17.3009521	1.978195111
2.575203164	17.31467015	0.791229417
2.580728019	17.33933941	0.152067004
2.583464484	17.28520392	-0.487571848
4.590166224	17.3175772	2.646501759
3.918419253	17.31222834	2.446932579
3.260624949	17.32873321	2.259443064
4.584856335	17.29754574	1.97940449
2.628911527	17.31063958	0.791410019
2.634513186	17.3352937	0.152101708
2.640704778	17.3048649	-0.488352699
4.646351234	17.31487927	2.648255328
3.976390422	17.32136668	2.449937129
3.314518998	17.32254504	2.259951373
4.644858256	17.30931751	1.982372921
2.672615818	17.35840791	4.792161926
4.701006439	17.30627182	2.649132232
4.029961892	17.31101518	2.450210119
3.368974067	17.31910864	2.260841149
4.702630373	17.31225008	1.984351913
2.725858263	17.35012768	4.792161928
3.427305816	17.38288995	2.935026451
4.756439251	17.30035126	2.650447348
4.088058861	17.3197805	2.453214432
3.422092595	17.30869271	2.26084115
4.758883656	17.30924261	1.985671085
4.10515886	17.26548402	-0.803705301
4.811349822	17.29234922	2.651470402
4.143250785	17.31582897	2.454443481
4.812764569	17.29743407	1.986001056
4.180111171	17.34409943	-0.807957974
4.864647624	17.27845863	2.651616315
4.196822737	17.30496086	2.454716707
3.534579418	17.3184684	2.264908332
2.886314608	17.32921424	2.083033565
4.869041964	17.29406691	1.987320226
4.236472606	17.26209261	3.119385835
4.923596806	17.28438484	2.65483139
4.254385676	17.31028177	2.457311416
3.588299109	17.31045604	2.265289564
2.94146029	17.33202516	2.084446433
4.926705429	17.29529781	1.989189426
3.605214197	17.22110094	-0.967355902
3.635294824	17.31538489	2.930940672
4.983175793	17.29201183	2.658338528
4.306036641	17.29138071	2.456491972
3.641389901	17.29936659	2.265289564
3.000033477	17.35423328	2.0882144
4.986624242	17.30397825	1.991937916
3.66612686	17.24804934	-0.969496901
4.369016719	17.36864417	5.262966383
4.368773025	17.36767461	4.530938438
3.689017681	17.30704647	2.931430863
5.047831101	17.31653165	2.664476375
4.365124217	17.30210213	2.459906126
3.696726641	17.29878228	2.26668765
3.055499354	17.35766112	2.089745047
5.04580816	17.30959112	1.994356672
3.709549424	17.19279812	-0.967026467
4.423940432	17.36166483	5.264940008
4.422275111	17.35513075	4.531183537
5.097576577	17.28957728	2.662722569
4.422110238	17.30398435	2.462090994
3.108562453	17.34722773	2.089627269
5.102824771	17.30737758	1.995895903
3.759074852	17.16670592	-0.966203029
4.475741293	17.34242038	4.531428632
3.784772758	17.28870918	4.295691606
3.138793265	17.26283207	2.736629332
5.155684262	17.29091977	2.66535304
4.480389791	17.31047607	2.46495893
3.807065077	17.29514775	2.269229668
3.161946474	17.33858672	2.089745048
5.15817094	17.29926023	1.996775429
4.529171101	17.32954539	4.531674201
5.218132043	17.30627689	2.670175532
4.545029749	17.34072899	2.471240783
3.862486158	17.2940354	2.270627755
3.214944507	17.32782803	2.089627269
5.214950405	17.29572567	1.998204749
3.919934711	17.36484197	3.624402873
5.280722328	17.32141409	2.674998025
4.602274791	17.342024	2.47342589
3.920347043	17.30338622	2.273423928
3.266433127	17.3090999	2.088567499
5.269437639	17.28439713	1.998754303
5.381177524	17.43709028	4.814658108
3.972753405	17.35082185	3.624003995
5.342580595	17.33349324	2.679382066
4.657257123	17.33451984	2.474381711
3.977635316	17.30964469	2.27583887
3.322141304	17.31265099	2.090215925
5.32888153	17.28904588	2.00117306
3.980956149	17.16889155	-0.969002838
5.398088276	17.32457573	2.680551033
4.709376888	17.31632635	2.473835494
4.032972924	17.30702009	2.277109879
3.369346068	17.27216277	2.086565974
5.390177396	17.29918723	2.004251521
5.454185746	17.31736853	2.682012537
4.765372275	17.31230199	2.475337767
4.090840472	17.31483768	2.279778975
5.445315326	17.28920549	2.005021136
4.814037347	17.31327044	3.840974143
5.505488563	17.29489815	2.681135634
4.819792089	17.30237193	2.476020598
4.141170023	17.29063034	2.278253812
3.487225142	17.31054662	2.093748335
5.504965032	17.29325363	2.007439892
4.880109385	17.34454629	3.851216129
5.568217301	17.30806219	2.685811977
4.87150861	17.28273671	2.475337768
4.202854822	17.31350727	2.28295638
3.541312198	17.30462941	2.094337226
5.563473142	17.29331484	2.009418767
5.627102679	17.30877258	2.688588599
4.928583727	17.28199894	2.477386259
4.253819701	17.29186422	2.281812449
3.595800079	17.30048931	2.095161439
5.622033653	17.29317902	2.011397642
4.310164382	17.33068795	2.958396718
5.683883729	17.30270558	2.690342168
4.991466632	17.3010627	2.482302451
4.316446439	17.31722915	2.286896485
3.65050068	17.29714976	2.096103195
5.677853268	17.28434894	2.012387316
4.32113221	17.19147921	-0.974602396
4.36524212	17.325038	2.959704207
3.699888633	17.31302466	2.76128658
5.741303702	17.29833172	2.692388039
5.047575017	17.29612764	2.483804489
4.372226138	17.31448492	2.288294573
3.704590738	17.29072359	2.096692087
5.745256643	17.31024156	2.017444651
4.392332484	17.25071399	-0.978719766
4.419106161	17.3144303	2.960194394
5.806612905	17.31721549	2.698087197
5.103979917	17.29196259	2.485443378
4.427291878	17.30867695	2.289311427
3.760152612	17.29092111	2.098104956
5.803708319	17.30855335	2.019313614
4.442991912	17.22845486	-0.978225643
4.469489167	17.29028559	2.958396719
5.862252775	17.30681515	2.6992564
5.164657668	17.30185222	2.489130522
4.483109459	17.30557495	2.290709514
3.818104693	17.3016085	2.100813154
5.859652759	17.2991398	2.020303052
4.499107185	17.2273019	-0.978939349
4.533756585	17.31943928	2.965750979
5.919805208	17.30185208	2.70130227
5.224298699	17.30773775	2.492271448
4.539452868	17.3042119	2.292361755
3.875289605	17.30822508	2.103050235
5.915594305	17.28954447	2.021292489
4.554491348	17.22307184	-0.979488308
4.595211494	17.33691752	2.971144244
3.926259176	17.32895483	2.7713035
5.979644525	17.30324371	2.704371193
5.278529944	17.29541899	2.492817666
4.596594376	17.30554148	2.294395227
3.930791824	17.30690654	2.104345563
5.972505717	17.28258643	2.022611896
4.607051562	17.20805327	-0.979433413
4.643776424	17.30558805	2.968202399
3.978298716	17.31201192	2.77053293
6.045741362	17.32217854	2.710216503
5.338284794	17.30091429	2.495958592
4.656104698	17.3153048	2.297572869
3.988328068	17.31411904	2.106700423
6.033360559	17.28670568	2.025250476
4.665830573	17.21600246	-0.980696077
4.033186481	17.30742426	2.771765794
6.115956622	17.35206478	2.717815617
5.394582992	17.29485812	2.497460867
4.713894475	17.31816487	2.299860496
4.042331975	17.30566975	2.1071713
6.088018882	17.27279991	2.025800268
5.429914426	17.38891008	1.833389377
4.720475302	17.20834707	-0.981080348
5.4568138	17.32743022	3.188183186
4.765304258	17.33289135	2.97784476
4.085811492	17.29304564	2.771457519
6.175797325	17.3518601	2.720738154
5.459830407	17.31696147	2.503059888
4.76753042	17.3055348	2.300114888
4.101126987	17.31734436	2.110115053
6.154980076	17.29337079	2.030417722
5.481440419	17.36647567	1.832788562
4.778055337	17.21110336	-0.982068534
5.503766041	17.29954235	3.880270056
4.821102946	17.32769469	2.979479119
4.138155969	17.27754685	2.770995225
6.222311847	17.31421167	2.717815617
5.513834902	17.30296195	2.503469729
4.818736291	17.284138	2.29922511
4.157018381	17.3162678	2.111527922
6.21338489	17.28937062	2.032176774
5.535903679	17.35336953	1.833189106
4.838666998	17.22423888	-0.983660573
5.569087048	17.32074611	3.888840012
4.197436839	17.29069398	2.775156106
6.291935328	17.34060759	2.724976044
5.576610765	17.31613776	2.507839703
4.877395986	17.28932146	2.301894207
4.210594103	17.30536212	2.111763479
6.271823086	17.28517722	2.033935827
5.596139001	17.35808509	1.83549223
4.895309374	17.22275976	-0.984429116
4.939765317	17.34143334	2.986996934
4.25117195	17.28061287	2.775618399
6.350210082	17.33515593	2.727168064
5.629096907	17.29706354	2.507566476
4.937493723	17.29907436	2.305198688
4.264854898	17.29718342	2.112352135
6.327558569	17.2733195	2.034815589
5.645359816	17.32853646	1.834190464
4.951988374	17.22109506	-0.985197718
4.259597857	17.2761467	4.855074395
5.670573892	17.26383939	3.189047451
4.992944917	17.32619661	2.986996934
6.405422589	17.32115874	2.728044966
5.690801703	17.30606301	2.511390235
4.997422564	17.30766894	2.30837633
4.322715671	17.30328639	2.114706996
6.391209559	17.28272623	2.038223784
5.705340895	17.33192718	1.836393452
5.013722718	17.23650249	-0.986954446
5.742126339	17.30245081	3.199418899
6.462684553	17.31254731	2.729798535
5.752614222	17.31484446	2.515213991
5.050498215	17.29225517	2.308376329
4.381871875	17.31401032	2.117650749
6.452197415	17.28445337	2.040752451
5.772931779	17.35777063	1.840999698
5.065452928	17.21720707	-0.986734862
5.807010795	17.32805963	3.906188777
5.797687061	17.29222398	3.200801728
5.101673728	17.30375136	2.98846774
6.523442221	17.31300472	2.733013609
5.812328145	17.31683708	2.518081928
5.106898292	17.28809418	2.309901493
4.439162082	17.31683918	2.119652275
6.512554433	17.28410855	2.043061059
5.827741966	17.34469406	1.841500378
5.122806883	17.21689875	-0.987613196
5.883036565	17.37778099	3.921447328
5.855451208	17.28834804	3.203394529
5.164321145	17.32016155	2.994024322
4.491903111	17.33905111	2.793649041
6.580395223	17.30308174	2.734621029
5.868927332	17.30924279	2.519583965
5.16133277	17.2770986	2.310536881
4.495512315	17.31563346	2.121183158
6.58003637	17.30213662	2.047568838
5.884444691	17.33709672	1.842601871
5.184233905	17.22978491	-0.989260132
5.916115452	17.29266929	3.207543251
5.223415095	17.3240723	2.997456358
4.549590523	17.34239114	2.796422804
6.639121123	17.29758893	2.736959199
5.929386015	17.31271053	2.522724891
5.22521331	17.29726281	2.315366763
4.551644982	17.31328468	2.122596027
6.636649303	17.2911476	2.048668187
5.940833154	17.32837348	1.843603229
5.237360551	17.21475456	-0.989315028
5.988276898	17.33765741	3.920611193
5.277540788	17.32750943	3.68784534
5.97010538	17.27722981	3.20806181
5.280567764	17.32117707	2.999744224
4.605057661	17.33694728	2.797809923
6.703591982	17.30665813	2.741635541
5.990892762	17.31877931	2.526275658
5.284051223	17.30012299	2.317908781
4.607805187	17.31075415	2.124008896
6.696846649	17.28924268	2.050867121
5.997874863	17.3213491	1.844804859
5.296314556	17.21864645	-0.990467901
6.039185185	17.31274242	3.919148021
5.340192308	17.34214115	3.694429031
6.02600406	17.26720089	3.209617491
5.339785548	17.32469376	3.003176259
4.665152384	17.34849923	2.801970804
6.764940061	17.30720277	2.744996529
6.043670986	17.2993825	2.526139044
5.3423698	17.30089024	2.320196409
4.662183817	17.30133182	2.12459779
6.757094566	17.28712927	2.053065818
6.055257493	17.31507563	1.846106624
5.355934644	17.22424677	-0.991730566
6.100394555	17.31719046	3.924373676
5.395119475	17.3312901	3.69562613
6.081569894	17.25606512	3.211000321
5.398194543	17.32518292	3.006118104
4.71342429	17.31599088	2.799042548
6.823813385	17.30109017	2.747334699
6.106274423	17.30785146	2.530099416
5.40310778	17.30903645	2.323501128
4.717332422	17.29461165	2.125539545
6.818122147	17.28665938	2.055484574
6.111001696	17.30392259	1.846907711
5.41354337	17.22297435	-0.992608959
6.15480517	17.30207994	3.925209575
6.137784686	17.2466053	3.212728856
5.45102544	17.30759937	3.00595455
4.769938695	17.3138336	2.801045981
6.879055156	17.28558899	2.748211603
6.160010583	17.29090251	2.530372406
5.456782786	17.29426911	2.323755282
4.770633652	17.28101493	2.125657324
6.878107405	17.28320771	2.057573598
6.169408071	17.30008746	1.848509884
5.470589851	17.2196071	-0.993377501
6.219759108	17.31624662	3.932734538
6.912512001	17.21312681	3.442587894
6.198994339	17.25086636	3.217050429
5.520557497	17.34249785	3.014943168
4.825687669	17.30863545	2.802587118
6.939426303	17.28276343	2.751134139
6.2214119	17.29522753	2.53378656
5.513129939	17.28784203	2.325153369
4.83351444	17.30168508	2.130013946
6.937395089	17.27770504	2.059442562
6.233915574	17.31290672	1.851914501
5.531634567	17.22841199	-0.99485975
7.045726752	17.35902775	5.726253898
6.280856861	17.31914789	3.937750868
4.864717509	17.29360327	3.481267472
6.253569749	17.23639666	3.217914697
5.577363196	17.33675015	3.0169044
4.886546805	17.32132575	2.807056273
7.012844709	17.31182051	2.759171704
6.279516352	17.29002475	2.535835051
5.570706323	17.28500783	2.327059765
4.891164698	17.30301988	2.132015708
6.996340446	17.27107833	2.061201613
6.291420724	17.30585653	1.853216267
5.587854592	17.22180684	-0.995463546
7.106559895	17.35591515	5.732392222
7.126698799	17.42157166	4.966192663
7.106328157	17.38649408	4.21116964
6.354134459	17.35489499	3.950292162
6.309469807	17.22545304	3.219470378
5.632965779	17.32706319	3.018211887
4.942376639	17.31575263	2.808597172
7.087254988	17.34242192	2.767501335
6.346854765	17.3097428	2.541570688
5.628624078	17.28292645	2.329093475
4.948322287	17.30225223	2.133781911
7.06659071	17.2918558	2.066258948
6.350655365	17.30328613	1.855018711
5.644707817	17.21691583	-0.996177251
7.189346176	17.40562592	5.756069093
7.181958434	17.40409588	4.967468205
7.152940342	17.34837268	4.207231444
6.409382837	17.34082155	3.951546243
6.366386485	17.21710091	3.221544621
5.691947664	17.32750749	3.021317049
7.147214289	17.33705966	2.770131806
6.401649974	17.29483425	2.542253519
5.684411279	17.27405624	2.330237406
5.002761814	17.29176035	2.134370568
7.12756321	17.28939162	2.068567793
6.401291208	17.27718989	1.85431776
5.697502168	17.19951777	-0.996177251
7.243079765	17.38437122	5.756361396
7.23792049	17.38822735	4.969253958
7.212126289	17.34076059	4.210731904
6.472467084	17.34764631	3.957608033
5.032462322	17.27825974	3.487355253
5.750674877	17.32681824	3.02425866
5.059611691	17.32303921	2.814761486
7.207966631	17.33331994	2.77305458
6.470629192	17.31779932	2.548535371
5.74270088	17.27253638	2.332397957
5.062761175	17.30015639	2.137314084
7.187824328	17.28488216	2.070656817
6.457752578	17.26678864	1.855319118
5.762284175	17.21793914	-0.998263414
7.299343969	17.36912019	5.758699804
7.299093473	17.38466248	4.974611225
7.282279546	17.35904395	4.220576685
6.527726443	17.3331997	3.958862117
7.220616047	17.21205572	3.46412019
5.812273567	17.33434907	3.028671311
5.108255323	17.29227403	2.812295761
7.275268861	17.34487844	2.778461437
6.527924004	17.30898928	2.550174023
5.803560604	17.27834398	2.335575599
5.119477432	17.29692276	2.138844969
7.249661932	17.2838301	2.073185485
6.520886352	17.27389054	1.858223057
5.816040245	17.20301759	-0.998428042
7.357822651	17.35897256	5.762792024
7.358050168	17.37554277	4.978437843
7.335121762	17.33572166	4.220357817
6.593728951	17.34691257	3.966595938
7.288713419	17.2260406	3.471419136
5.868908821	17.32671399	3.030468987
5.171182525	17.30965549	2.817689505
7.333458798	17.33432062	2.780361157
6.589454578	17.31110012	2.553451563
5.861960289	17.27642432	2.337736148
5.177075279	17.29635504	2.140728714
7.308463098	17.27523768	2.074834626
6.583061702	17.27797823	1.860826588
5.874277119	17.20115508	-0.999361331
7.407661094	17.32840228	5.760161311
7.422336525	17.3786733	4.98583597
7.414315967	17.37416442	4.235234658
6.641663636	17.31290678	3.963460497
7.359279444	17.24519567	3.479813137
5.921719336	17.30769335	3.030305669
5.2345493	17.32775926	2.823237504
7.396698986	17.33539701	2.784160831
6.646440916	17.30097471	2.554953838
5.929729321	17.30152168	2.343582649
5.234430817	17.29464807	2.14249492
7.376250808	17.2874729	2.079012434
6.64639483	17.28463071	1.863730525
5.931905537	17.19721107	-1.000184829
7.515687075	17.43293266	5.802545461
7.481738228	17.37002912	4.989917697
7.488414279	17.39973574	4.247048299
6.722286477	17.36358092	3.979764273
7.436639513	17.27943343	3.491308967
5.978335459	17.29970042	3.032103344
7.452194929	17.31807448	2.785037497
6.706649742	17.29897401	2.557685159
6.000951586	17.33573749	2.350700396
5.297054385	17.30984345	2.146380664
7.435539447	17.27936943	2.080771486
6.711990109	17.29662508	1.867235398
5.998434106	17.21853505	-1.002490575
7.5794302	17.43347181	5.810437592
7.543083578	17.3656186	4.995274964
7.545256874	17.38473521	4.24901716
6.784778082	17.36655738	3.985198786
6.052003915	17.35496741	3.742110601
7.499011714	17.27818433	3.495688479
6.041134712	17.30922208	3.037006185
7.51474242	17.31691039	2.788544872
6.769074937	17.30230374	2.561235691
6.04625249	17.29477457	2.347649832
5.355712028	17.31153615	2.148617747
7.491286697	17.26285967	2.081541102
6.769377616	17.28706962	1.868437028
6.06249836	17.23207456	-1.004357035
7.616885889	17.38933509	5.008795681
7.610685468	17.38921569	4.255799214
6.841253466	17.35384909	3.98707991
6.112380331	17.35665196	3.746499885
7.583128236	17.32625291	3.510103982
6.098801272	17.30363313	3.039294288
7.582111767	17.32640012	2.793805579
6.827945824	17.29619912	2.563420797
6.10720889	17.29858988	2.350700396
5.408797771	17.29502455	2.148617748
7.552580597	17.2589168	2.083849947
6.828231908	17.281025	1.8700392
6.119682802	17.22562639	-1.005070741
7.679966109	17.387996	5.015173376
7.673454346	17.38721054	4.26104967
6.899161289	17.34459058	3.989797403
7.640218659	17.31190097	3.511928836
6.166083716	17.3248075	3.046321677
5.46463255	17.31875342	2.832483853
7.640025516	17.31391848	2.795559149
6.886109592	17.28805304	2.565332675
6.156920514	17.27042982	2.349429387
5.469913869	17.30391444	2.151796821
7.627965595	17.28658762	2.09000663
6.888954971	17.27940482	1.872142052
6.171152823	17.20301095	-1.004851157
7.760025146	17.42441602	5.032520713
7.733902058	17.37963339	4.264987865
6.959261173	17.34058618	3.993768505
6.223068988	17.33081012	3.749093404
7.706086314	17.31712541	3.517767947
6.223877563	17.31880537	3.048609778
5.529147698	17.33767829	2.838339891
7.701150849	17.30847432	2.798481922
6.950936729	17.29625995	2.56970265
6.220290653	17.28039134	2.353369493
5.527811258	17.30218556	2.153680803
7.689853331	17.2830822	2.092425387
6.952702651	17.28495758	1.87504599
6.232402294	17.20746593	-1.006223613
7.801565825	17.38787322	4.272863783
7.022705151	17.3445348	3.999621205
6.283891208	17.33282474	3.753682008
7.786144726	17.35350385	3.529993812
6.282029037	17.31354079	3.051061198
7.769603352	17.31906461	2.804035166
7.007690574	17.28403283	2.57106831
6.281408204	17.28359836	2.356419819
5.583613853	17.29365068	2.154740574
7.750977273	17.27754674	2.094624084
7.00195834	17.25432543	1.874044632
6.297509387	17.22202546	-1.008199866
7.894897183	17.42317038	5.846683413
7.111641608	17.42173807	5.52968143
7.851656806	17.35674473	4.271113316
7.077363446	17.32652921	4.000457102
6.347142428	17.34107006	3.75966703
7.842589778	17.33670095	3.531453649
6.337152592	17.29974404	3.052041813
5.646440491	17.33724772	2.843887654
7.83207737	17.31587749	2.807396154
7.072685175	17.29179411	2.575438286
6.342603963	17.28659498	2.359470147
5.63910789	17.2839918	2.155682566
7.810091913	17.26726898	2.096273225
7.075970991	17.28432728	1.879652237
6.353428303	17.21105264	-1.008693988
7.162499756	17.39362721	5.5277078
7.173454899	17.42023135	4.766400631
7.937261754	17.40359944	4.288615149
7.144271733	17.33818798	4.008190922
6.411861354	17.35276707	3.766450277
7.895741412	17.31255984	3.531453651
6.400121074	17.30705532	3.0567811
5.70083939	17.32359715	2.844504203
7.889680114	17.30166907	2.809003573
7.134770641	17.29199213	2.578715826
6.3997428	17.27821748	2.360995312
5.702367652	17.29773171	2.159568073
7.87498974	17.2694532	2.099461597
7.139978705	17.28920683	1.882556175
6.429561315	17.25416783	-1.01237219
7.225030436	17.39372157	5.534756406
7.227609491	17.39993219	4.766891296
7.998363083	17.39601014	4.292771738
7.220326756	17.37127137	4.020941545
6.469520706	17.34494939	3.769043794
7.952514721	17.29629352	3.533095877
6.470093824	17.33262696	3.064789103
5.755830957	17.31165117	2.845428791
7.961731605	17.31872909	2.815725785
7.196162363	17.29014106	2.581720138
6.462100147	17.28358565	2.364427107
5.761371607	17.29805665	2.161805155
7.93540731	17.26146682	2.101440708
7.204848597	17.29569367	1.885660386
6.475083787	17.2147362	-1.011219318
7.29393123	17.40863919	5.546597704
7.278335196	17.37141744	4.76517468
8.066467352	17.40326126	4.300647658
7.280014878	17.36437038	4.024494937
6.534442771	17.35619887	3.77582704
6.53263126	17.33762151	3.069201753
5.813634394	17.30795961	2.847740496
7.995276692	17.25203489	2.808857422
7.26757965	17.31182605	2.588275218
6.52875381	17.29987089	2.36938383
5.816948021	17.28782956	2.162747147
8.008387746	17.28032764	2.106717866
7.26789799	17.29735812	1.888263917
6.540271034	17.22746042	-1.013140732
7.339462761	17.36762124	5.540676818
7.336879173	17.36150823	4.768608386
8.12973516	17.39964938	4.305898587
7.342775317	17.36447063	4.02972012
6.591837021	17.34706198	3.778221002
6.592454555	17.3350185	3.072306917
5.871151701	17.30314213	2.849897947
7.33649361	17.32684995	2.593874241
6.585681924	17.28995619	2.370781917
5.876350547	17.28870648	2.165102008
7.335296197	17.30887342	1.891968941
6.598809769	17.222234	-1.014019067
7.408510997	17.38209312	5.552518593
7.402652534	17.3683468	4.77670222
8.185573467	17.37992165	4.307210845
7.411359432	17.37784348	4.038080984
6.658710334	17.36243964	3.786001792
5.898531716	17.25233257	3.533203861
6.647374076	17.31931711	3.073123978
5.926772118	17.29252573	2.851130809
7.396619999	17.32065781	2.596332335
6.645457734	17.28726211	2.373196859
5.942584697	17.30910643	2.169929745
7.388755582	17.28720405	1.892069078
6.671061415	17.25219757	-1.016983564
7.46976061	17.37779222	5.558439004
7.468537059	17.3749463	4.78479653
8.24094793	17.35913467	4.30830471
7.476230475	17.38197269	4.044351865
6.720434772	17.36386061	3.790789951
6.712949499	17.33104088	3.078844117
5.984968386	17.28920053	2.853596534
7.455210095	17.31062173	2.598244214
6.702409258	17.27696474	2.374594946
6.000214774	17.30392826	2.171578171
7.460268092	17.30739846	1.89677546
6.730492843	17.24839285	-1.01797169
7.53944792	17.39264616	5.570562588
7.531061373	17.37329778	4.790683083
8.316908998	17.38130053	4.320118824
7.535359993	17.37241222	4.047487072
6.778309252	17.35502706	3.79338347
6.773990222	17.330578	3.082439468
6.052982705	17.313661	2.860685433
7.5114404	17.29493737	2.599336649
6.762976189	17.27571714	2.377264042
6.057213023	17.29668576	2.172991041
7.518091163	17.29537905	1.89797709
6.778988527	17.21651327	-1.017312939
7.608528272	17.40547574	5.582122073
7.606071266	17.39985639	4.804418379
8.383335815	17.38294837	4.326900405
7.594500551	17.36265083	4.050622276
6.83259985	17.33688502	3.793981901
8.34897687	17.31170577	3.567036431
6.827127883	17.30971541	3.08243947
6.112979472	17.31457465	2.863921727
7.569234336	17.28270087	2.600975538
6.832708442	17.29732279	2.383110542
6.113229451	17.28644623	2.17405081
7.572315624	17.27496477	1.898277496
6.830301405	17.19192299	-1.017093355
7.687819685	17.4408724	5.601011977
7.672712258	17.4066008	4.81275731
8.440464917	17.36504522	4.328869739
7.656414947	17.35895417	4.055220893
6.892997812	17.33405266	3.797972074
8.412793871	17.30811686	3.571598332
6.886767247	17.30518674	3.085381314
6.178015444	17.32924352	2.869469489
7.641430744	17.30289439	2.607530617
6.887579628	17.28088576	2.383746165
6.17391601	17.28911887	2.176759006
7.638954634	17.28259362	1.901682114
6.887842777	17.18293612	-1.017807061
8.557903994	17.44238389	5.938467414
7.742616319	17.42018622	4.823058899
8.52246072	17.39777961	4.343527238
7.722748755	17.3648699	4.062118818
6.957091769	17.34010601	3.803957096
8.471910809	17.29458619	3.574152986
6.955632978	17.32334537	3.092408704
6.234498374	17.31950345	2.871010625
7.707374476	17.30832823	2.611900592
6.948706005	17.27992054	2.386542339
6.237371082	17.299056	2.180408957
7.698826461	17.27452627	1.903384423
6.95250623	17.19134367	-1.019563729
8.61815811	17.42976287	5.943144234
7.80712505	17.42112145	4.829926783
8.593938103	17.40830034	4.35271589
7.792392369	17.37768005	4.070688537
7.007684122	17.31232237	3.802560678
8.569758984	17.359321	3.592947999
7.020230097	17.3302691	3.097475097
6.303466809	17.34394056	2.878253544
8.551118247	17.32384671	2.853867034
7.767337329	17.29996367	2.614222074
7.022941634	17.31091043	2.393786925
6.301963888	17.31156557	2.184412244
8.509685537	17.23990704	2.126617472
7.760759749	17.27079179	1.905587411
7.02105787	17.20876285	-1.021869476
8.675003435	17.41008778	5.945482642
7.073712494	17.37788441	5.312412022
8.67255391	17.41964269	5.134053652
7.872111655	17.42270833	4.837039763
7.090722667	17.3823032	4.556565401
8.655997611	17.39932538	4.357091348
7.85090669	17.36527441	4.073405555
7.070396283	17.31432708	3.807747712
6.320633632	17.26642828	3.563072224
8.63611459	17.35935788	3.59842233
7.087547148	17.34335295	3.103685424
6.358009012	17.3282312	2.878870095
8.616121898	17.32144531	2.857812623
7.825278495	17.28688351	2.615860963
7.082780171	17.30580695	2.39607479
6.360526136	17.3070629	2.186296227
8.587325358	17.26355525	2.132774156
7.824384954	17.27046512	1.908190942
7.079521117	17.20099107	-1.022692973
8.733954125	17.39450135	5.949282557
7.944618966	17.4403873	5.631743654
7.155136003	17.42463515	5.333389516
8.738529708	17.41801628	5.141451779
7.932760558	17.41435536	4.841454324
7.154371922	17.38563132	4.563170072
8.719395729	17.3927492	4.362122934
7.915907523	17.36691192	4.07946711
7.133186698	17.31611181	3.812934985
6.388890377	17.28839476	3.571633121
8.700346979	17.35475352	3.602984229
7.158018527	17.36348384	3.111203002
6.416975788	17.3243945	2.881489838
8.689171364	17.33472738	2.864388685
7.884446656	17.2763128	2.617909219
7.140382868	17.29499798	2.397599954
6.41946557	17.30329587	2.188297989
8.646039168	17.24867819	2.134203474
7.884773965	17.26266865	1.909993386
7.134174023	17.1838021	-1.022967393
8.79979953	17.39237056	5.957759293
7.994885207	17.40895664	5.629487741
7.216293016	17.42126965	5.339110136
8.805013475	17.41701289	5.149105017
7.222206889	17.39860236	4.572368738
8.783713815	17.3876906	4.367592256
7.983850538	17.37453404	4.086992076
7.221247143	17.37829974	3.83148872
6.444988732	17.27699158	3.573345206
8.759756307	17.34026652	3.605538885
7.215801315	17.35237174	3.113164232
6.479438742	17.32961328	2.885650719
8.749003527	17.32123343	2.866580706
7.943209607	17.26464091	2.619821097
7.199510549	17.28765978	2.399633426
6.478093164	17.2983991	2.190181972
8.718186117	17.26022107	2.138931076
7.943939999	17.25195331	1.911495422
7.193030782	17.17656889	-1.023845846
8.883087301	17.42407924	5.97792855
7.271932113	17.40437468	5.340744733
8.875084619	17.42265592	5.158799115
7.274800293	17.3745721	4.571897148
8.855166003	17.39631463	4.37656204
8.04698236	17.37125311	4.092008403
7.276801658	17.36148657	3.83268582
6.523909472	17.32604311	3.587613601
8.817375255	17.32207287	3.607363504
7.272437852	17.33834077	3.114635037
6.530481463	17.30410789	2.884726132
8.807936052	17.30577044	2.868480424
7.993638039	17.23479897	2.61900189
7.262502106	17.28926833	2.402938146
6.533591288	17.28494537	2.191006185
8.787328672	17.26528212	2.142888826
7.997249629	17.22840278	1.911595558
7.257348834	17.18201513	-1.025492723
8.911594716	17.34825663	5.961266907
7.329030851	17.39084934	5.343469378
8.920546826	17.37986114	5.154207172
7.339790553	17.37992199	4.579209441
8.914284943	17.38035226	4.379406372
7.332320943	17.34449538	3.833882919
6.584707078	17.32613621	3.591799039
8.887078843	17.32730842	3.614115277
7.331747121	17.33048518	3.117250011
6.593386947	17.30984427	2.889041032
8.865051506	17.28658936	2.869795779
7.324410353	17.28791224	2.405861397
6.593669453	17.28337574	2.193361046
8.855224453	17.26742808	2.146517079
8.883083672	17.30315472	1.434814558
8.98016184	17.35056022	5.971497449
7.390630989	17.38776417	5.349462747
8.979600464	17.36357781	5.157523577
7.396884927	17.36626261	4.581567879
8.981004349	17.37892893	4.38596956
7.385498543	17.32191885	3.83388292
6.646270019	17.32785184	3.596364756
8.949675333	17.31830494	3.617947142
7.38720457	17.31335543	3.118230627
6.656743067	17.31628004	2.893510188
8.925763908	17.27425118	2.8722801
7.384819491	17.28268934	2.408276337
6.659864985	17.29735421	2.197717668
8.918651962	17.26048869	2.149045746
8.922380985	17.24924584	1.432607517
8.933015604	17.25651908	0.722372186
8.898648237	17.15710869	-0.69519638
9.065629648	17.38482836	5.99283591
7.450385817	17.38004159	5.354094264
9.038190293	17.34623712	5.160584871
7.470457422	17.39081059	4.594069119
9.035180706	17.35302409	4.386406821
7.468799436	17.36939287	3.84944426
6.709676914	17.33393088	3.601881763
9.014570811	17.31343974	3.622691433
7.454325039	17.32323311	3.124114082
6.719485997	17.32064765	2.897671069
9.005213793	17.29768085	2.880755882
7.445658332	17.27816964	2.410818119
6.719015277	17.29257713	2.199719194
8.973859436	17.23745252	2.149595538
8.999226055	17.26777931	1.436433063
8.995620604	17.24763879	0.723152351
8.957260349	17.1412402	-0.69566368
9.114030667	17.34762171	5.989620598
7.531925488	17.42245681	5.374253985
9.099454852	17.33383576	5.165176812
7.531888756	17.38653598	4.599022503
9.100161875	17.34768933	4.39209501
8.284019247	17.32236575	4.104131987
7.533748376	17.37336917	3.855429521
6.763897081	17.31600723	3.602452536
9.08317482	17.3153068	3.6288958
7.510971383	17.30842716	3.125584886
6.783399113	17.32755332	2.902294245
9.068808529	17.29012115	2.884116869
7.515235772	17.29345331	2.416156311
6.782186284	17.29776725	2.203016045
9.022546335	17.20191874	2.148605865
9.059578932	17.25421717	1.437610136
9.044310239	17.21199774	0.722818029
9.025170488	17.14286145	-0.696849873
9.208367947	17.39733986	6.016512782
7.5949544	17.42131707	5.381064651
9.178358258	17.35455863	5.179717963
7.592585832	17.38026753	4.603503822
9.172490789	17.35592275	4.401283662
8.371517532	17.36822436	4.121062569
7.591332157	17.360049	3.857623925
6.824189807	17.31344284	3.60625746
9.142686187	17.2995283	3.631450455
7.578671367	17.31874419	3.13163166
6.840520663	17.31676773	2.903989399
9.146307528	17.30857321	2.891862134
7.572237186	17.27939943	2.41742732
6.839607151	17.28795928	2.204429151
9.127860358	17.25543251	1.440037952
9.098008275	17.18593474	0.722892296
9.085213473	17.12921752	-0.697424998
9.259899227	17.36563068	6.015343576
7.66230639	17.42964474	5.390872239
9.267931053	17.39458507	5.200126592
7.659191941	17.38712863	4.611523744
9.250916235	17.37507124	4.41331617
8.433736414	17.36093022	4.125451855
7.654440179	17.35909352	3.862611643
6.880177191	17.29972175	3.607779285
9.204496557	17.28788616	3.634917537
7.652877395	17.34324744	3.140293406
6.900566223	17.31313981	2.906917419
9.204015578	17.28916372	2.893323402
7.631227575	17.26969559	2.419333952
6.902185532	17.29087464	2.207490447
9.196233998	17.25639159	1.442465768
9.171382228	17.19673822	0.724526894
9.168482167	17.17613634	0.013252808
9.157032136	17.13740253	-0.698898783
9.326709013	17.36241465	6.024112613
7.722372372	17.4210078	5.395503755
9.318509703	17.36095854	5.198595946
9.311097584	17.35950721	4.416597765
8.489539578	17.34024393	4.126705937
7.713632494	17.34895924	3.865604036
6.949305771	17.31862142	3.616150159
9.29885362	17.33667958	3.651157659
7.710861989	17.33050335	3.142254636
6.961390971	17.31113825	2.910153712
9.269637878	17.28438292	2.897268991
7.7071844	17.29784627	2.42657854
6.959652731	17.28067064	2.208903316
9.263284596	17.25445657	1.444672809
9.234975962	17.188767	0.725381326
9.262338644	17.22455047	0.013312027
9.237038754	17.16026585	-0.700983693
8.597217265	17.43458281	5.712378248
9.355498185	17.31454832	4.412441174
8.589861829	17.40970779	4.149489691
7.770028716	17.33236414	3.867200245
7.015668258	17.32998073	3.622998973
9.355736714	17.31499007	3.652617496
7.767629307	17.31486708	3.143725441
7.023383057	17.31167284	2.913852299
9.321211306	17.25325143	2.896830776
8.551081518	17.31054501	2.661609436
7.77200478	17.30035774	2.43026449
7.022355176	17.28315754	2.211964847
8.498340877	17.1901755	1.929920411
9.326613672	17.24525388	1.446291313
9.305741993	17.19374983	0.726793003
9.319901815	17.20484678	0.013318833
9.30440986	17.15908064	-0.702098002
8.649385234	17.40554857	5.711532342
7.067208648	17.3937392	5.122782693
8.658193873	17.42327394	4.92239457
7.098207704	17.41422962	4.372674532
7.840521768	17.346841	3.875778786
7.0743704	17.32200843	3.625852605
7.826812373	17.30443725	3.14617686
7.084694752	17.31016215	2.917242612
8.611653894	17.29930536	2.663930918
7.827500234	17.28185342	2.431026954
7.088151393	17.29277349	2.215968135
8.589639863	17.24150172	1.938632226
9.380431469	17.21831027	1.446438417
9.36657999	17.18003426	0.727424573
9.374079152	17.17880622	0.013320875
9.36658984	17.14799562	-0.702816894
8.721216661	17.41581837	5.723655924
7.922184047	17.43679523	5.422746893
7.122368198	17.37643945	5.124098766
8.713343321	17.40009663	4.9233759
7.911037892	17.37762114	4.634403344
7.156415726	17.4040826	4.375619002
7.896548155	17.3289476	3.877175442
7.12897608	17.30385408	3.6266134
7.894191417	17.31176228	3.151897
7.150965595	17.32030855	2.922636354
8.6709051	17.28520021	2.665842797
7.889547531	17.2776078	2.433823127
7.14610464	17.28287476	2.217498781
8.666600991	17.263086	1.944039678
8.779792629	17.39925871	5.727039083
7.179331183	17.36342105	5.126731381
8.776292536	17.39232428	4.92877179
7.962287879	17.3488516	4.63322365
7.209030492	17.3802459	4.375166007
8.77838164	17.38665388	4.163075738
7.951720617	17.30909089	3.878172984
7.192955949	17.30819056	3.632130642
7.961276352	17.31793845	3.157453583
7.225721818	17.35027932	2.931420411
8.746686962	17.30360517	2.67280748
7.951642615	17.27314411	2.436619301
7.209414742	17.28561541	2.220677855
8.739284557	17.27548002	1.948445653
8.840959383	17.38763647	5.732114064
7.239994475	17.3591224	5.131995667
8.843231574	17.39210436	4.936375432
8.013027277	17.31905143	4.631808399
7.264198289	17.36253878	4.376298493
8.840549839	17.37707073	4.167256167
7.260824488	17.32135362	3.639549992
8.760069198	17.21292954	3.389562008
8.011880942	17.28806127	3.156472968
7.287336465	17.34807058	2.934810724
8.812321416	17.30140628	2.676631238
7.987479338	17.21177785	2.431408422
7.272809304	17.28813038	2.223856929
8.800377797	17.2645427	1.950248097
8.848133133	17.35224192	1.250023032
8.899074038	17.36982229	5.73521541
7.299951138	17.35283564	5.136733998
8.901853289	17.37524594	4.939318474
8.062016298	17.28557895	4.629449961
7.329170871	17.36799005	4.383319443
8.894267205	17.35073846	4.167465499
7.313549209	17.29809142	3.639359734
8.063629577	17.26071832	3.155982779
7.344765027	17.33563975	2.936505881
8.875311005	17.29367734	2.679635786
7.334347606	17.28584775	2.226447346
8.856484919	17.24365789	1.950949048
8.889926318	17.30282387	1.248421932
8.9020118	17.30404993	0.536757887
8.973006	17.38250781	5.748466239
7.362951501	17.35344711	5.143578039
8.969792079	17.37628158	4.947412782
8.119144556	17.26955804	4.631808399
7.388142514	17.35886663	4.386716434
8.945661095	17.31989273	4.166629126
7.376211753	17.29814783	3.644115944
7.401409731	17.32120176	2.937892998
8.935605205	17.28044693	2.681820656
7.394768275	17.28061193	2.228684666
8.929466994	17.25528701	1.955355024
8.929205309	17.24888093	1.246500517
8.918716752	17.20654752	0.534579635
8.907805841	17.15763345	-0.875502673
9.04887073	17.39830923	5.762845265
7.435133424	17.37512459	5.156739701
9.037373869	17.37620454	4.955261523
8.174585396	17.24983622	4.633223651
7.471330394	17.40593115	4.404382293
9.028098674	17.34875396	4.180215649
8.244163108	17.38019312	3.91647779
7.43351329	17.28535762	3.646208545
7.462727033	17.31746719	2.941129291
9.00780285	17.28985037	2.687556291
7.447356012	17.25693143	2.228566887
9.000302998	17.26221957	1.95926032
8.994081561	17.24441014	1.248165751
8.999690457	17.23315374	0.536261559
8.975219655	17.15854972	-0.876950409
9.118682156	17.40190865	5.773277031
7.506370784	17.3938622	5.169111716
9.106389655	17.37844996	4.963846022
8.22956239	17.22906086	4.634403344
7.532434577	17.40080425	4.40891177
9.111705136	17.37900115	4.194219878
8.283497497	17.3256461	3.909894101
7.527132721	17.35614107	3.665993948
8.266857437	17.2792162	3.173142718
7.53039207	17.32801994	2.946831073
7.52443752	17.28954571	2.235749247
9.062937093	17.25302293	1.961363172
9.058549345	17.23882099	1.249766851
9.059035483	17.21784722	0.536647618
9.041791081	17.15744735	-0.878307608
9.161725529	17.354337	5.766792523
7.577792746	17.4123264	5.181483731
9.17550431	17.3804372	4.972430523
7.597084594	17.40350065	4.415479725
9.171831828	17.36393668	4.197355085
8.338739764	17.30456476	3.910891644
7.577591791	17.32667172	3.664662145
8.34425561	17.30442383	3.182458208
7.589466962	17.31840948	2.949142778
7.586624153	17.28729494	2.238457444
9.128391853	17.2488801	1.964066838
9.138942241	17.26298581	1.253545429
9.122115759	17.20940458	0.537254215
9.109376915	17.15786067	-0.879755344
9.236098689	17.36595921	5.780043824
7.629239117	17.3845806	5.180167663
9.235612147	17.36504397	4.976109797
8.40596826	17.32424789	4.673793907
7.662999259	17.40863971	4.422727175
9.235626045	17.35557204	4.202163031
8.410626154	17.31768343	3.919669976
7.642993584	17.33118879	3.670559667
8.405067142	17.29471488	3.185400054
7.656540885	17.32667596	2.954536523
7.648063669	17.2830084	2.240930083
9.201396559	17.25854772	1.968372678
9.207358596	17.26392419	1.255659008
9.178167154	17.18750876	0.537447215
9.166684716	17.13864289	-0.880207744
9.322411533	17.3992787	5.800625075
7.690736331	17.37961933	5.185695635
9.300747449	17.35884538	4.982487016
8.516710279	17.41623107	4.705636141
7.729016991	17.41353589	4.429974622
9.287904334	17.32543051	4.201744844
8.511534412	17.38949246	3.941815009
7.694134688	17.30317348	3.669608614
8.463294814	17.27947779	3.187361047
7.722128585	17.33108135	2.959313716
7.71480904	17.29029694	2.24493337
9.264188073	17.24864336	1.97047553
9.267365164	17.24878295	1.256619598
9.237957627	17.17247491	0.537860811
9.261284174	17.20719678	-0.175308782
9.236281266	17.14209901	-0.881836441
7.777826417	17.4317081	5.208333478
9.350276512	17.32340452	4.980524831
8.579553652	17.40919738	4.710825558
7.792749326	17.41285624	4.435863083
9.343802472	17.30201742	4.202998927
8.574814155	17.38350961	3.946403612
7.776101492	17.34398421	3.683305998
8.536790483	17.29501128	3.195042417
7.783361429	17.32533519	2.962395991
8.556899041	17.31290386	2.47462203
7.772707747	17.27741463	2.246346476
9.328899054	17.24201897	1.972978925
9.326415854	17.2316784	1.257452156
9.302505688	17.16602347	0.538550139
9.320227406	17.1901311	-0.175425399
9.304554791	17.14265529	-0.883329359
8.635084863	17.38714646	4.712004779
8.625924672	17.35273437	3.945406071
7.837767526	17.33883291	3.687301179
8.593765305	17.27668869	3.196513221
7.845038779	17.32027504	2.965632284
8.618818481	17.30432722	2.477164049
7.831830114	17.26705131	2.24811268
9.370638541	17.18721225	1.256299401
9.367170269	17.15092425	-0.175317753
8.70265681	17.42174004	5.514011143
8.711003372	17.40576145	4.724269984
8.685704701	17.3393306	3.9483987
7.904768028	17.34507928	3.693769476
8.658664834	17.27405528	3.200925872
7.907579777	17.31679736	2.969176616
8.677206134	17.28844096	2.478689212
7.893440244	17.26190777	2.250585319
8.751665158	17.33796916	3.954184166
7.952616467	17.30914971	3.69129636
8.7258538	17.27558877	3.206155584
7.963561982	17.29873735	2.970255458
8.733338979	17.26793444	2.47957899
7.953013907	17.2520391	2.252469066
8.835505138	17.41950035	5.53035712
8.848896662	17.41349414	4.741016981
8.820809603	17.34248168	3.961366526
8.027963251	17.33277455	3.701569578
8.781050941	17.25313287	3.206972644
8.026578128	17.29573522	2.973954047
8.802488205	17.27287511	2.484154482
8.009070574	17.14190859	-1.221220967
8.89372337	17.40173593	5.533354042
8.904049819	17.38972388	4.74196064
8.890956039	17.34847554	3.968947522
8.093561202	17.33474843	3.70727684
8.844745953	17.2471806	3.210894869
8.079603206	17.27102874	2.973954047
8.868578673	17.27137592	2.487840432
8.886778164	17.2912204	1.774079637
8.882186229	17.26745762	1.061838059
8.073953839	17.14343686	-1.223088857
8.959843421	17.3991762	5.541254282
8.951567526	17.35109851	4.738894103
8.174068089	17.39870331	4.469835347
8.954029696	17.34027042	3.973336805
8.170116512	17.35958123	3.717930338
8.903052387	17.23048165	3.2128561
8.935653977	17.27139622	2.491780537
8.928795075	17.24265008	1.771898702
8.937417204	17.24455899	1.062111049
9.02071411	17.38612345	5.545885798
9.023581945	17.35976897	4.748800871
8.226574446	17.37178348	4.469382352
9.022111734	17.3414049	3.979920496
8.208188784	17.30250228	3.711081764
8.964984373	17.22058745	3.216124817
8.181606793	17.21309561	2.972566928
8.994559797	17.255335	2.493432778
9.003302423	17.25667445	1.776169852
9.002297144	17.24006945	1.063530712
9.086046717	17.38138985	5.553241488
9.089873039	17.35696795	4.7556411
8.282768299	17.35261636	4.470967835
9.093013477	17.34749209	3.987701049
8.29892545	17.35606417	3.728013297
9.026480225	17.20960158	3.219229744
8.311644775	17.34919956	3.000460234
9.076590659	17.26775704	1.78016837
9.058866465	17.21943926	1.063967495
9.075346353	17.23324249	0.351870658
9.038572518	17.14744101	-0.353912202
9.133948693	17.34321592	5.549972291
9.155777581	17.35306379	4.762245294
9.154428704	17.33510974	3.991292109
8.384099942	17.39685188	3.742281695
8.381158407	17.35742849	3.006316271
9.136981109	17.25390992	1.781622366
9.128485576	17.22332737	1.065933137
