x	y	z
-3.208762738	11.75755077	0.105720876
-3.232547805	11.98940203	0.10771594
-3.184683451	11.95771248	0.107342949
-3.131702281	11.90553461	0.106787799
-3.184665388	12.25963766	0.109875811
-3.187534724	12.42723391	0.1112897
-3.162158005	12.487361	0.111740758
-3.181546394	12.72789127	0.11380521
-3.175776	12.87254049	0.115010923
-3.166782051	13.00755707	0.116129888
-3.14227549	13.08138345	0.116702383
-3.155389806	13.31572891	0.11870612
-3.164364309	13.53859159	0.120605765
-3.169530156	13.75091373	0.122409997
-3.155693648	13.88538594	0.12352029
-3.137126748	14.00233673	0.124474449
-3.225897632	14.60849997	0.129774375
-3.189994263	14.65936579	0.130138693
-3.14102204	14.65050627	0.129973872
-0.080065989	6.239484868	0.004247433
-3.761068741	31.41345866	0.274442298
-0.060796215	6.226701863	0.004238584
-0.0397376	5.934865629	0.004039826
-3.428004755	31.05016838	0.270981295
-3.331874572	31.05258479	0.270911915
-3.235347334	31.05072632	0.270807816
0.02960456	5.30891617	0.003613721
-3.138661694	31.04657663	0.270686401
-3.043007356	31.05207952	0.270651681
0.065142033	5.561617302	0.003785933
-2.944986852	31.03240109	0.27040015
0.080194488	5.425406281	0.003693361
-2.851595377	31.06120506	0.270573629
0.096125133	5.385141075	0.003666134
0.111077468	5.309836903	0.003615083
0.130005291	5.419439671	0.003689957
-0.078781577	6.323254714	-0.056731794
-2.573737471	31.18479581	0.271432353
0.146414896	5.411018071	0.003684512
-0.059400512	6.325466503	-0.056749735
0.160545511	5.328580835	0.003628696
-0.037730643	5.967640469	-0.053538166
0.177523065	5.347052812	0.003641629
0.194289234	5.356476308	0.003648436
0.209738921	5.330874188	0.003631419
0.227576098	5.365174239	0.003655243
0.032006249	5.379688466	-0.048263293
0.244307818	5.370444901	0.003659327
-2.260244688	37.08679084	0.322306408
0.257969455	5.311738301	0.003619847
0.065824458	5.446382918	-0.048864338
0.273851822	5.302932213	0.003614402
0.082078853	5.416160093	-0.048595212
0.28935479	5.288088392	0.003604872
0.098512814	5.405884779	-0.048505504
0.305403961	5.28418081	0.003602831
0.115608256	5.429550714	-0.048720807
0.322829396	5.303181895	0.003616444
0.132119207	5.423172552	-0.04866698
-0.076023958	6.382483449	-0.11654075
0.339097811	5.302166289	0.003616444
0.149305066	5.442733358	-0.048846397
-0.055726279	6.301703413	-0.115062085
-1.312216509	30.88497284	0.268153531
0.351818111	5.248219829	0.003580368
0.165118299	5.413264318	-0.048586242
-1.215093722	30.82890276	0.267633064
0.365539596	5.213199014	0.003557225
0.183805502	5.474694725	-0.049142435
-1.12232201	30.88245132	0.268066777
0.382188782	5.221029148	0.003563351
0.197231779	5.382170608	-0.048317116
0.001976501	5.474087067	-0.099946839
-1.023613965	30.76681947	0.267034544
0.398433086	5.222823455	0.003565393
0.214139972	5.391531789	-0.048406824
0.018503336	5.396068797	-0.098522936
-0.930485618	30.81179351	0.267398877
0.413742479	5.212604304	0.003559267
0.230765456	5.392847755	-0.048424765
0.035175082	5.413983468	-0.098851529
-0.835518092	30.79850899	0.267260088
0.427678009	5.18639535	0.00354225
0.245522604	5.353156658	-0.048074905
0.051583954	5.392854217	-0.098468167
-0.741699068	30.82891943	0.267502976
0.443161437	5.18007668	0.003538847
0.262677906	5.367360061	-0.048209466
0.068078235	5.38867174	-0.098395152
-0.647932172	30.87003913	0.267841263
0.459228188	5.180685	0.003540208
0.278312403	5.350550908	-0.048065931
0.085379312	5.437423414	-0.099289653
-0.552020789	30.80489422	0.267260088
0.473110433	5.157343673	0.003525233
0.292691076	5.312729429	-0.047734011
0.102360923	5.453130253	-0.099581731
-0.096577382	6.503038272	0.056416852
0.487042578	5.135957354	0.00351162
0.302485126	5.200000149	-0.046729274
0.120116483	5.499771407	-0.100439725
-0.073327103	6.223333772	0.053988082
0.512348258	5.231972609	0.003578326
0.313852164	5.124190918	-0.046056457
0.137287754	5.511371687	-0.100658787
-0.050103566	5.749565591	0.04987652
0.521059901	5.15774553	0.003528636
0.331946657	5.16012607	-0.04638838
0.155370266	5.552901108	-0.101425504
-0.031221815	5.52970364	0.047968203
0.53719187	5.159106651	0.003530679
0.342059463	5.074279374	-0.045625854
0.172591783	5.558394495	-0.101535035
0.556002499	5.185274722	0.003549738
0.366274345	5.195896398	-0.046729274
0.18828003	5.517868308	-0.100804826
0.204241508	5.491287205	-0.100330194
0.217829194	5.409713883	-0.098851529
0.234554809	5.412016673	-0.098906291
0.135161558	5.398104951	0.046840558
0.708730289	5.240289409	0.003599427
0.506062022	5.147977736	-0.046406321
0.322600171	5.220169781	-0.095492584
0.149446257	5.316700091	0.046137949
0.722062625	5.218278994	0.003585814
0.527300931	5.20012364	-0.046890747
0.34165631	5.266049143	-0.096350578
0.165227177	5.299225247	0.045990491
0.734285854	5.189305771	0.003567435
0.539198859	5.159693968	-0.046540882
0.352861832	5.192156049	-0.095017952
0.188466992	5.502566042	0.047760023
0.745049858	5.151398972	0.003542931
0.554384132	5.152050161	-0.046487059
0.36730157	5.170105622	-0.09463459
0.200163701	5.363064239	0.04655431
0.766113033	5.184702524	0.003567435
0.571398165	5.161257754	-0.046585739
0.384048464	5.180919266	-0.094853652
0.212862848	5.269504245	0.045747613
0.77933006	5.164529231	0.003555183
0.588700065	5.172396509	-0.046702359
0.398555998	5.161773209	-0.094525059
0.234196143	5.387709522	0.046779839
0.79243053	5.144323479	0.003542931
0.604565953	5.17056622	-0.046702359
0.41535058	5.172485719	-0.094744121
0.248911163	5.348009199	0.046441546
0.808209373	5.141868432	0.003542931
0.619353637	5.159751813	-0.046621621
0.432879307	5.191114655	-0.095109229
0.26472278	5.335235374	0.046337457
0.823505696	5.1364026	0.003540889
0.633713944	5.145917568	-0.046513971
0.448372653	5.184781619	-0.095017952
0.276354126	5.244526309	0.045556782
0.839744055	5.136812318	0.003542931
0.650249994	5.149901745	-0.046567798
0.462760871	5.16645229	-0.094707614
0.288099599	5.16577773	0.044880194
0.856485824	5.140130229	0.003547015
0.667971221	5.162757923	-0.046702359
0.48008519	5.180936962	-0.094999698
0.31134849	5.29064718	0.045973142
0.878612153	5.174942243	0.003572881
0.684463939	5.165641023	-0.046747215
0.495882511	5.178444776	-0.094981445
0.312927114	5.262653338	-0.147074697
0.325229819	5.251741165	0.045643521
0.894995751	5.175178756	0.003574923
0.701115032	5.16946203	-0.046801038
0.51196413	5.178888928	-0.095017952
0.328072925	5.245705945	-0.146628511
0.337188807	5.186856086	0.045088375
0.902197135	5.123166275	0.003540889
0.718345731	5.177191163	-0.046890747
0.519940192	5.099708878	-0.09359405
0.34337949	5.232705311	-0.146293861
0.35547781	5.220714902	0.045391971
0.919322164	5.128248804	0.003546334
0.73633277	5.189813567	-0.047025312
0.54216465	5.160734662	-0.094744121
0.359020498	5.225643661	-0.146126551
0.372344951	5.231569163	0.045496063
0.941512106	5.160819525	0.003570839
0.751820903	5.18456122	-0.0469984
0.557994988	5.159046796	-0.094744121
0.376339206	5.242464378	-0.146628511
0.38602382	5.198490964	0.045218488
0.951501173	5.126444174	0.003549057
0.76054292	5.133761355	-0.046558827
0.573820114	5.157310743	-0.094744121
0.39092842	5.221348862	-0.146070776
0.405826217	5.247131665	0.045652198
0.975201173	5.165754428	0.003578326
0.78212288	5.169963733	-0.046908691
0.590548705	5.163472993	-0.094890167
0.405935477	5.207168919	-0.145708245
0.423124792	5.260813026	0.045782311
0.987651478	5.14506088	0.003566074
0.79706482	5.161610412	-0.046854865
0.6067372	5.164616027	-0.094944929
0.4208592	5.19294699	-0.145345715
0.443174324	5.306325151	0.046189995
1.005921607	5.154766134	0.003574923
0.812896637	5.15914075	-0.046854865
0.622938256	5.165708011	-0.094999698
0.435950913	5.181670461	-0.145066855
0.466095546	5.381650543	0.046857906
1.024260436	5.164407446	0.003583771
0.831259543	5.172419076	-0.0469984
0.637556025	5.153850022	-0.094817144
0.451585442	5.177320922	-0.144983185
0.485820174	5.416049931	0.047170179
1.047014092	5.195550732	0.003607595
0.84890301	5.180699158	-0.047097079
0.653490574	5.152861507	-0.094835398
0.468186407	5.18387567	-0.145206285
0.504559157	5.437434978	0.047369683
1.043093761	5.09532581	0.003540208
0.865287376	5.181029374	-0.047123991
0.670198134	5.157772867	-0.094963183
0.484831873	5.190376987	-0.145429385
0.524770175	5.472690716	0.047690628
1.067474235	5.134201393	0.003569477
0.882352663	5.18525102	-0.047186788
0.717273371	5.390582795	-0.099289653
0.500849447	5.189860189	-0.145457265
0.540375621	5.459114013	0.04758654
1.079502645	5.113290132	0.003557225
0.893304297	5.153946828	-0.046926632
0.743522036	5.459686389	-0.100604018
0.516174937	5.182330999	-0.14528994
0.556715234	5.45345135	0.047551842
1.096861437	5.117776599	0.003562671
0.905636317	5.131486973	-0.046747215
0.762613862	5.474214031	-0.100914357
0.531765273	5.177740053	-0.145206285
0.574594222	5.462656921	0.047647258
1.116383461	5.131976188	0.003574923
0.924027456	5.143447568	-0.046881776
0.777572006	5.458980803	-0.100677041
0.546701292	5.167137594	-0.144955305
0.590597122	5.45390907	0.04758654
1.14203874	5.173445567	0.003606234
0.942140788	5.153375841	-0.0469984
0.794172276	5.455580256	-0.100658787
0.562443075	5.164442022	-0.144927424
0.607215952	5.451077787	0.047577863
1.153752681	5.151376819	0.003593301
0.958312395	5.152427418	-0.047016341
0.809288297	5.442239528	-0.100457979
0.580065063	5.178586881	-0.14537361
0.624505549	5.454156873	0.047621233
1.173982406	5.167315755	0.003606915
0.980992255	5.185816949	-0.047348261
0.813523041	5.357685044	-0.098942806
0.596521579	5.181747767	-0.14551304
0.642520573	5.463139176	0.047716649
1.204424987	5.227030195	0.003651159
0.989531234	5.144486531	-0.0469984
0.806833956	5.205970395	-0.096186278
0.612298823	5.178900954	-0.145485146
0.659517897	5.463127824	0.047733998
1.216360162	5.205782401	0.003638906
1.018166302	5.207178572	-0.047599446
0.822645721	5.202482926	-0.096168024
0.628064133	5.176005474	-0.145457265
0.672834445	5.433292187	0.047491124
1.228867866	5.187430382	0.003628696
1.031018453	5.188337613	-0.047455914
0.838125234	5.19697363	-0.096113262
0.64357063	5.171078639	-0.14537361
1.238005372	5.155437425	0.003608957
1.049503996	5.197892737	-0.047572534
0.853578744	5.191418045	-0.096058493
0.65715529	5.151231539	-0.14487165
1.248850164	5.131210658	0.003594662
1.055601229	5.146649647	-0.047132961
0.869501751	5.188774943	-0.096058493
0.672696832	5.147208726	-0.144815874
1.280151484	5.190463714	0.003638906
1.078115294	5.175692059	-0.047428999
0.886426227	5.191995947	-0.096168024
1.280796089	5.125391435	0.003596024
1.089436732	5.150837041	-0.047231641
0.902179593	5.18826701	-0.09614977
1.298723169	5.130162863	0.00360215
1.112371472	5.180711436	-0.047536652
0.916523911	5.17661443	-0.09598547
1.329359374	5.184274002	0.003642991
1.134009273	5.203653998	-0.047778863
0.931869232	5.170825953	-0.095930708
1.327663274	5.112418528	0.003595343
1.149320818	5.197221434	-0.047751952
0.948810838	5.173843187	-0.096040239
1.360381459	5.173117999	0.003640949
1.154971472	5.147812915	-0.04733032
0.96467946	5.17090802	-0.096040239
0.816678563	5.464156611	-0.154130039
1.378561596	5.1776169	0.003647075
1.179191547	5.181296283	-0.047671214
0.979234358	5.16104818	-0.095912454
0.801319387	5.251144901	-0.148190168
1.393398755	5.169501008	0.003644352
1.18653607	5.140629036	-0.04733032
0.992790958	5.146238728	-0.095693392
0.812041987	5.214092266	-0.147214127
1.410304918	5.169060696	0.003647075
1.208454487	5.163253283	-0.047572534
1.017232828	5.187320269	-0.096514871
0.832897292	5.24218032	-0.148078618
1.434408122	5.194591728	0.003668176
1.219210347	5.138116512	-0.047375176
1.034314987	5.190058334	-0.096624402
0.848496525	5.236640351	-0.147994963
1.446839439	5.177646037	0.003659327
1.231460345	5.119768413	-0.047240611
1.05142353	5.192740563	-0.096733933
0.862766324	5.223163866	-0.147688208
1.467070762	5.188579037	0.003670218
1.257108842	5.156769608	-0.047617387
1.06593967	5.182634927	-0.096606148
0.877625128	5.213592162	-0.147493002
1.493708424	5.221549946	0.003696764
1.278199471	5.174245692	-0.047814749
1.110659196	5.317338489	-0.099180122
0.892940258	5.206933895	-0.147381452
1.515558545	5.237114797	0.003711058
1.285570163	5.136348524	-0.047500767
1.152896119	5.436165709	-0.101462012
0.909770599	5.209093261	-0.147520882
1.538079973	5.254514442	0.003726714
1.310907111	5.170182863	-0.047850631
1.169779071	5.433580603	-0.101480266
0.926272584	5.20923032	-0.147604552
1.511896574	5.106900222	0.003625293
1.330493868	5.180664517	-0.047985196
1.172997599	5.368428688	-0.100330194
0.94403009	5.216200415	-0.147883413
1.566563583	5.232524108	0.003717865
1.330020678	5.11365387	-0.047402088
1.157647912	5.221313659	-0.097646689
0.961114968	5.219177911	-0.148050738
1.563775696	5.165481861	0.003673621
1.352324442	5.134690664	-0.047635332
1.173003027	5.214811181	-0.097591927
0.974361921	5.20146683	-0.147632432
1.379922536	5.174963003	-0.04804799
1.189885883	5.215086889	-0.097664943
0.988070416	5.186669658	-0.147297797
1.388756258	5.144639058	-0.047805779
1.201822819	5.193878168	-0.09733635
1.000746943	5.166930978	-0.146823717
1.404269761	5.139389528	-0.047796804
1.212498957	5.167778474	-0.096916487
1.017752701	5.169720902	-0.146991042
1.659303902	5.24792471	0.003746454
1.429092335	5.16782609	-0.048101816
1.223257555	5.142634781	-0.096514871
1.036549734	5.181276953	-0.147409332
1.728970169	5.410457212	0.003866253
1.44844346	5.175935967	-0.048218437
1.241607131	5.149549747	-0.096715679
1.053038079	5.181011212	-0.147493002
1.464861101	5.173391802	-0.048236377
1.26024779	5.157371122	-0.096934741
1.07297042	5.197335542	-0.148050738
1.71218775	5.246690438	0.003756664
1.492842672	5.211170344	-0.048631098
1.277506432	5.159303976	-0.097044272
1.088705452	5.193040908	-0.148022843
1.294058741	5.158269413	-0.097099034
1.164150919	5.469300995	-0.155998451
1.800607729	5.404961007	0.003877825
1.525352312	5.203831453	-0.048649039
1.311848189	5.162027478	-0.09724508
1.143770411	5.293740183	-0.151090381
1.587069262	5.353481015	-0.050093349
1.331666571	5.173470665	-0.097537158
1.149086835	5.240409372	-0.149668169
3.920472137	11.53179191	0.008290662
1.635360429	5.454907004	-0.051089115
1.348288944	5.172263299	-0.097591927
1.167763942	5.248568092	-0.150002805
3.960379471	11.53295064	0.008300192
1.661661343	5.481443732	-0.051385157
1.36925435	5.187437132	-0.097957028
1.180559453	5.230334775	-0.1495845
3.99639913	11.5226361	0.008301553
1.683451791	5.492573294	-0.051537659
1.391874265	5.208326269	-0.09843166
1.185000132	5.176019137	-0.148134393
4.026441627	11.49522066	0.008290663
1.701182736	5.490247864	-0.051564574
1.400796918	5.177972512	-0.097938774
1.196353002	5.152885256	-0.147576657
4.065358045	11.49318382	0.008298149
1.718317461	5.485957304	-0.051573545
1.416412112	5.172686493	-0.09792052
1.211698149	5.147244568	-0.147520882
4.103963087	11.49007447	0.008304956
1.736950948	5.486379719	-0.051627368
1.444290737	5.211674735	-0.098741998
1.228412143	5.147392149	-0.147632432
4.13614132	11.46896394	0.00829883
1.750117923	5.469596335	-0.051519718
1.445154771	5.153308495	-0.097719712
1.243258218	5.139712867	-0.147520882
4.183967436	11.49098753	0.008324016
1.769351412	5.471812919	-0.051591486
1.259972754	5.139757811	-0.147632432
4.230587162	11.5090709	0.008346478
1.784266859	5.460655564	-0.051537659
1.278868081	5.148479702	-0.147994963
4.274225717	11.5185382	0.008362814
1.800071092	5.452307168	-0.051510747
1.526818189	5.257890071	-0.099965093
1.298804566	5.16101146	-0.148469028
4.311648708	11.51098946	0.008366899
1.821219683	5.460039061	-0.051636338
1.579853096	5.378851025	-0.102356514
1.317348434	5.167657556	-0.148775784
4.349065522	11.50331997	0.008370983
3.805246115	11.29263334	-0.106905881
1.628804286	5.48324086	-0.104437595
1.334195944	5.167462883	-0.148887334
4.385049935	11.49179132	0.008372344
3.846640083	11.30078515	-0.107094269
1.643893052	5.472472536	-0.104328064
1.351054657	5.167213787	-0.148998884
4.421722933	11.48201685	0.008375066
3.882267636	11.29176738	-0.107121181
1.659221716	5.462620137	-0.104236794
1.363831166	5.151448821	-0.148664248
4.396797657	11.31367055	0.008262074
3.927060695	11.30908666	-0.107399281
1.698867218	5.532054712	-0.10566069
1.376782437	5.136619343	-0.148357493
4.425645342	11.28523244	0.008251183
3.95545078	11.2790564	-0.107228834
1.725614092	5.558327336	-0.106263114
1.410072492	5.197008476	-0.150225905
4.487474945	11.34041095	0.008301553
4.001385368	11.29891703	-0.107533846
1.751340482	5.580672169	-0.106792507
1.416745033	5.158920653	-0.149249864
4.512975793	11.30337238	0.008284536
4.027613225	11.26304817	-0.107309569
1.75636159	5.537151403	-0.106062306
1.434707065	5.162254651	-0.149472964
4.559963442	11.32008325	0.008306999
4.075053179	11.28637902	-0.107650462
1.758079955	5.484131478	-0.10514955
1.448102328	5.149168214	-0.149221969
4.589023976	11.29214344	0.008296789
4.115824571	11.29073499	-0.107811939
1.770582781	5.465395582	-0.10489398
1.486873104	5.225462923	-0.151564462
4.648681778	11.33907886	0.008341713
4.159424084	11.3024537	-0.108045179
1.787964089	5.461838279	-0.104930488
1.518106302	5.273709521	-0.153098238
4.6624288	11.27393884	0.008304276
4.196517643	11.29620079	-0.10810798
1.793095412	5.42120489	-0.104255048
1.535676004	5.273826008	-0.153237668
4.764369777	11.42109183	0.008423395
4.23782503	11.30106236	-0.108278427
1.828098164	5.470678852	-0.105313843
1.558626494	5.29210324	-0.153906954
4.826534502	11.47094273	0.008471042
4.274246285	11.29268444	-0.10832328
1.599966127	5.371601996	-0.156360981
4.863266704	11.45976265	0.008473765
4.311012318	11.28512228	-0.108377103
1.610095983	5.345610942	-0.155747471
4.933028063	11.52569033	0.008533664
4.348851735	11.28024032	-0.108457845
1.625614864	5.337777767	-0.155663816
4.379088014	11.25566248	-0.108350191
1.663750895	5.403460883	-0.157727433
4.435889885	11.29895323	-0.108897414
1.680320714	5.398331214	-0.157727433
4.481582435	11.31318112	-0.109166544
1.705574996	5.42080318	-0.158536149
4.521465249	11.31237756	-0.109292131
1.708565575	5.37267789	-0.157281247
4.55839363	11.30401743	-0.109345961
1.72014692	5.352183799	-0.156835061
4.602473184	11.31313565	-0.109570231
4.633742566	11.29063611	-0.109489497
1.822150576	5.552378633	-0.163025913
4.704697252	11.36413854	-0.110341724
1.837917956	5.542966925	-0.162914363
4.850514485	11.61539955	-0.112925339
4.843041515	11.49817163	-0.111929569
4.924039549	11.59094029	-0.112979162
4.973359938	11.6079494	-0.113293145
5.990896085	12.38847011	0.009366815
5.947824246	12.20373171	0.009240889
5.935418901	12.08400178	0.009163973
6.578332966	14.72580173	-0.144691188
5.935643684	11.9913489	0.009107476
5.968387012	11.96502913	0.00910135
6.683862352	14.7188488	-0.145023111
6.011354829	11.95917077	0.00911088
6.701099494	14.63735655	-0.144422073
6.022713267	11.89071448	0.009072762
6.716223408	14.55226642	-0.143785138
6.041436144	11.83744385	0.009046216
6.64863526	14.29042738	-0.141398881
6.000895473	11.66944937	0.008931861
6.568889316	14.00650826	-0.138788361
6.024247343	11.62701118	0.008913483
6.52934754	13.81181045	-0.13705698
6.556636052	13.7601193	-0.136742998
6.552932186	13.64439114	-0.135792095
6.578206325	13.5900208	-0.135451201
6.030855045	11.2981399	0.008717448
5.950823564	12.19832759	-0.121761646
5.964395446	12.13155535	-0.121277217
5.97495005	12.05943903	-0.120738964
6.137937949	11.24829951	0.008722212
5.97707861	11.97126887	-0.120039236
6.170491873	11.2259099	0.00871949
5.989508444	11.9046387	-0.119554814
6.016960227	11.86836907	-0.119375396
6.231950634	11.17473714	0.00870928
6.041970777	11.82759172	-0.119151119
6.261307509	11.14684568	0.008702473
5.998143841	11.65340708	-0.117581222
6.282673291	11.10495455	0.008684775
6.019136412	11.60654399	-0.117294151
6.286018186	11.03175933	0.008642573
6.052401038	11.58359172	-0.117249299
6.332775031	11.03497278	0.008660271
6.395623445	11.06570763	0.00869975
6.09231621	11.40303758	-0.115984406
6.592860854	11.24710936	0.008874004
6.075140776	11.28743512	-0.114997607
6.116414331	11.28105155	-0.115123201
6.141888078	11.24555831	-0.114952754
6.160454088	11.19775056	-0.114656713
6.278757756	11.24880148	-0.115571741
6.313170877	11.1491539	-0.114943784
6.337438532	11.11236057	-0.114764366
6.412838608	11.1648343	-0.115508947
6.417019468	11.09317328	-0.114970695
6.45404272	11.07861854	-0.115024518
6.49255536	11.06652742	-0.11510526
6.511725822	11.0215901	-0.114845101
6.558290821	11.02304453	-0.115069378
6.613662767	11.03889876	-0.115446154
6.636134631	10.99972051	-0.115248796
6.77108929	11.14595969	-0.11699811
6.686283318	10.93064497	-0.114952754
6.754397845	10.9662737	-0.115544829
6.913440717	11.1477538	-0.117679898
6.843802768	10.96024707	-0.115921605
6.993953165	11.12459491	-0.117886227
7.001843763	11.0616843	-0.117446657
6.947612769	10.90185392	-0.115975436
7.160843836	11.16074784	-0.118962731
7.191795595	11.13368561	-0.118908908
7.223193494	11.10737797	-0.118864056
7.269833781	11.10440697	-0.119070385
7.310470988	11.09207111	-0.119178038
7.326775966	11.04292652	-0.118890967
7.376726883	11.04451094	-0.119151119
7.437915251	11.06248925	-0.119590696
7.499843978	11.08102376	-0.120039236
8.963484628	13.07006258	-0.142179344
8.990475022	13.02357431	-0.141973022
8.982457786	12.92695159	-0.141219471
9.035829375	12.91899886	-0.141434763
9.017283283	12.80863315	-0.140528712
8.585932448	12.11677426	-0.133226413
8.606227323	12.06676604	-0.132966269
8.639708521	12.03543192	-0.132912446
8.68127675	12.01535325	-0.13298421
8.695750962	11.95793175	-0.132643316
8.682196564	11.86260856	-0.131880794
8.697792055	11.8077366	-0.131566811
8.710156376	11.74886512	-0.131207976
8.763501884	11.74532981	-0.131468136
8.730443435	11.62643252	-0.130436484
8.738338518	11.56289619	-0.130023826
8.611541304	11.32272716	-0.127619628
7.846403989	10.25127473	-0.115813959
7.889411157	10.24220611	-0.115984406
7.907318944	10.20056587	-0.115787048
7.891831841	10.11633851	-0.11510526
7.910481895	10.07634845	-0.114925843
7.923382164	10.02927751	-0.114665683
7.895618639	9.931344412	-0.113822427
7.91855427	9.897704376	-0.113714773
7.899343149	9.81183079	-0.113006074
7.916818856	9.772010284	-0.112826657
7.927806646	9.724424156	-0.112557534
7.960139526	9.703149078	-0.112593416
8.000693012	9.691791405	-0.112745922
8.034223579	9.671814563	-0.112799745
8.077326131	9.663232348	-0.112988133
8.118520336	9.652181197	-0.113149609
8.186855107	9.673024862	-0.113687862
8.221679631	9.65395261	-0.113759626
7.890656131	9.976617523	-0.232241762
8.285094321	9.668167527	-0.114226114
7.893830481	9.917941635	-0.23143853
8.330389156	9.660878165	-0.114441413
7.903595118	9.867924311	-0.230836121
8.366542047	9.642828605	-0.114531126
7.896813913	9.797700682	-0.229759065
8.43159887	9.657792501	-0.115015548
7.912349572	9.755566722	-0.229339195
8.481647687	9.655167898	-0.115293648
7.935288063	9.722725509	-0.229138387
8.513878041	9.632098524	-0.11532953
7.9650796	9.69833494	-0.229138387
8.516806726	9.576044526	-0.114970695
7.996706899	9.676164665	-0.229193149
9.854474132	11.0118596	-0.132571552
8.037223346	9.664654692	-0.229503495
9.890888202	10.98454668	-0.132607434
8.082878131	9.659120582	-0.229959873
9.923199558	10.95266862	-0.132589493
8.125353328	9.64957353	-0.230324981
9.975617225	10.9428644	-0.132840667
8.189822115	9.665792979	-0.231310753
10.05172606	10.95863305	-0.133405838
8.240195548	9.664967537	-0.231894908
10.09615003	10.93950111	-0.133549366
8.292594547	9.666201197	-0.23253384
11.75250676	12.65608799	-0.1549449
8.347037246	9.669474876	-0.233227534
11.71618503	12.53959942	-0.153958101
8.395022573	9.664956207	-0.233738688
11.73062836	12.47809598	-0.153644118
8.443057474	9.660234509	-0.234249828
11.75511294	12.42751886	-0.153464708
8.493123673	9.657561415	-0.23481573
11.76905562	12.36604418	-0.153150726
8.524700012	9.633705414	-0.234870506
11.73017144	12.24971135	-0.152154956
11.74827123	12.19350395	-0.151903782
11.75012901	12.1207866	-0.151446257
11.7537454	12.05032093	-0.151015658
11.76264327	11.98565652	-0.150656823
11.75369125	11.90326336	-0.150073711
11.76055405	11.83735355	-0.149696935
11.74167341	11.74605413	-0.148997206
11.74290772	11.67542945	-0.148557637
11.74879886	11.60982782	-0.148180861
11.72372044	11.51417118	-0.147418339
11.73537664	11.45509848	-0.147122297
11.74390962	11.39327922	-0.146790374
11.7068246	11.28778744	-0.145893294
11.7096328	11.2213763	-0.145498577
11.67231998	11.11712339	-0.144610453
11.63883528	11.01733083	-0.143776167
11.73521535	11.04049837	-0.14454766
11.67919166	10.92043931	-0.143444244
11.61009031	10.78925756	-0.142188314
11.6519519	10.76172877	-0.142295975
11.62966373	10.67521522	-0.141623158
11.66679241	10.64352937	-0.141676981
11.68976103	10.5989546	-0.141560364
11.7088521	10.55099238	-0.141398881
11.73371776	10.5083488	-0.141309176
11.75843283	10.46565275	-0.141219471
11.7343113	10.37983916	-0.140546653
11.73455912	10.3160602	-0.140169877
11.77368357	10.2865906	-0.140259583
11.65015856	10.94845675	-0.29189953
11.78404532	10.23206318	-0.140008394
11.66469554	10.89491851	-0.291424898
11.82219439	10.2017419	-0.140089143
11.68047906	10.84275548	-0.290986774
11.86634123	10.17649032	-0.140241641
11.65563518	10.75330951	-0.28954461
11.93936449	10.1757119	-0.140735034
11.69078131	10.71952665	-0.289599386
11.97129024	10.13968086	-0.140744004
11.70218199	10.66407918	-0.289069978
12.01075681	10.10998886	-0.140842695
11.71187092	10.60732135	-0.288504062
12.05092159	10.08079178	-0.140950341
11.71983569	10.54926557	-0.287901667
12.08871281	10.04952612	-0.141031075
12.13336394	10.02385467	-0.141192559
12.17024181	9.991659071	-0.141264323
12.42088305	10.13380176	-0.143812049
12.5272583	10.15673414	-0.144682217
12.03093372	10.49973676	-0.29155269
12.57782658	10.13393683	-0.144906495
11.83800667	10.26755424	-0.286112664
12.69316189	10.16279903	-0.145875353
12.80409615	10.1873124	-0.146790374
12.1976773	10.44905552	-0.293250409
12.84941013	10.15914568	-0.146951858
12.87108172	10.11226303	-0.146844197
12.88470447	10.05918999	-0.146646846
12.80963375	9.937479976	-0.145444754
12.5896837	10.51976312	-0.299548415
12.88995488	9.936595642	-0.146009911
13.12111319	10.89563164	-0.311396001
12.86719257	9.856261564	-0.145408858
13.02492402	10.74841356	-0.308329133
15.89872025	12.10119518	-0.179246996
13.09262773	10.73693379	-0.309150634
15.93736727	12.05356812	-0.179264937
13.0704783	10.65186941	-0.307854501
16.00144992	12.02504114	-0.179569948
13.08134044	10.59410009	-0.307343361
16.0406714	11.97768758	-0.17959686
13.16051632	10.59152936	-0.308438686
16.03879637	11.89982014	-0.179166261
13.23120941	10.58170301	-0.309333173
16.05591204	11.83631684	-0.178950954
13.34971321	10.60948855	-0.311341253
15.99937848	11.71905003	-0.177919302
13.55482319	10.70481037	-0.315357355
16.10721374	11.72227794	-0.178717706
13.61513027	10.68477758	-0.315996287
16.09934466	11.64116659	-0.178233284
13.63365418	10.63188966	-0.315667716
13.61878915	10.55326676	-0.314572392
13.647141	10.50838572	-0.314481137
13.62135005	10.42211513	-0.313148496
13.62142293	10.35607186	-0.31241828
13.62122035	10.29012578	-0.311688093
13.6327348	10.23328241	-0.3112317
13.63521335	10.16989006	-0.310574529
13.63984167	10.10836489	-0.309972105
13.67239947	10.06765641	-0.310008613
13.63221308	9.973709904	-0.308402178
13.67811411	9.94301	-0.308749018
13.68666944	9.885193196	-0.308256117
13.69662495	9.82858362	-0.307799754
13.75439312	9.806250871	-0.308420417
13.80481152	9.778455344	-0.30887681
13.99418904	9.848262525	-0.312436549
13.98172732	9.775491437	-0.311487285
14.02068506	9.738824407	-0.311688093
14.05790351	9.700874536	-0.311852393
14.06780798	9.644132359	-0.311414269
14.06427443	9.578415003	-0.310684053
14.09028116	9.532980227	-0.310611037
14.12029162	9.490264221	-0.310629276
14.16680373	9.458558215	-0.311012653
14.19325553	9.413392832	-0.310957877
14.22874743	9.374204904	-0.311103938
14.2557671	9.329412063	-0.3110674
14.29689662	9.293806731	-0.311341254
14.35810025	9.271051984	-0.312053201
14.42434811	9.251248664	-0.312874672
14.46531238	9.215009537	-0.313148496
14.49520473	9.17165675	-0.313185004
14.53089376	9.131930594	-0.313349304
14.57326065	9.09630789	-0.313659636
14.61214687	9.058402846	-0.313896952
14.64838213	9.018773336	-0.314079521
14.67512953	8.973268037	-0.314061252
14.71540982	8.935987957	-0.314335076
14.75217321	8.896478919	-0.314535884
14.79741121	8.861965957	-0.314919261
14.89069939	8.855879885	-0.316324887
15.00819399	8.8635389	-0.318241683
15.00254279	8.798233002	-0.317547975
15.00959195	8.740592497	-0.317128119
14.98007654	8.661970917	-0.31594154
14.95455538	8.586101398	-0.314846215
14.96519211	8.531268723	-0.314517645
14.98781488	8.483345173	-0.314444599
15.00331112	8.431445489	-0.314225552
14.97235512	8.353711462	-0.313038973
14.87021905	8.237004314	-0.310373721
14.9514901	8.222178876	-0.311542061
14.99595246	8.186810069	-0.311943648
15.06319171	8.163631799	-0.312819896
15.10489661	8.126380833	-0.313166765
14.99834646	8.009822026	-0.310446737
15.17214251	8.042911597	-0.313531844
15.21709651	8.007034958	-0.313951728
15.27881258	7.979751591	-0.314718453
15.30854843	7.935600282	-0.314827976
15.37549696	7.910552672	-0.315704224
15.41394142	7.870619328	-0.315996287
15.4736903	7.841371119	-0.316726503
15.50749956	7.798802624	-0.316927311
15.59397578	7.782442686	-0.318205175
15.67601773	7.763406418	-0.319391755
15.65668918	7.694110226	-0.318515507
15.71257342	7.661815794	-0.319172678
15.66310367	7.57830204	-0.317694036
15.74667084	7.559202928	-0.318917123
15.70930862	7.482052359	-0.317694036
15.81626053	7.473547398	-0.319391755
15.89433742	7.450875733	-0.320505319
15.87360633	7.381840366	-0.319629071
16.01783549	7.389228276	-0.322075246
15.99133342	7.317585312	-0.321089474
16.02554546	7.273862707	-0.32132679
25.72489295	4.454124878	-0.476677952
25.72069337	4.372165172	-0.476349351
25.77244916	4.299651371	-0.477061299
25.76479815	4.217170477	-0.476677952
25.78551272	4.139373303	-0.476823983
25.78623776	4.058379636	-0.476604936
25.82327057	3.983059599	-0.477061299
25.84822173	3.90575828	-0.477298615
26.0232788	3.85058623	-0.480310736
26.12402506	3.783628164	-0.481953678
26.24143341	3.718472744	-0.483906982
26.44584114	3.664709402	-0.487466721
26.72447093	3.619791581	-0.492395607
7.672081257	0.212973131	-0.276065578
7.680690894	0.189631841	-0.276353141
7.691227886	0.166282926	-0.276712587
7.694699085	0.1427414	-0.276820441
7.704094012	0.119272945	-0.277143945
7.607493742	0.094433352	-0.273657193
7.607930036	0.047752869	-0.273657193
7.680993136	0.024645924	-0.276281228
7.680033446	0.001080713	-0.276245286
7.679001257	-0.022478377	-0.276209345
7.670901369	-0.045989184	-0.275921782
7.618663123	0.231773	-0.345188376
7.645741181	-0.06929653	-0.275023123
7.63331879	0.208780562	-0.345821735
7.533573451	-0.091395236	-0.270997186
7.634921973	0.185385131	-0.345867004
7.618475896	0.161600501	-0.345097896
7.610945222	0.138081619	-0.344735976
7.603342526	0.114610468	-0.344374028
7.585678069	0.091067351	-0.343559709
7.670108567	0.02148179	-0.347359952
7.663145209	-0.002048003	-0.347043243
7.657109278	-0.025538201	-0.346771803
7.649003378	-0.048978589	-0.346409884
7.641824429	-0.07237894	-0.346093204
7.652672333	0.226424181	-0.213584584
7.67331602	0.203475006	-0.21414232
7.678901169	0.180049806	-0.21428175
7.683414845	0.156571875	-0.2143933
7.683859174	0.132998754	-0.2143933
7.670237741	0.109225124	-0.21400289
7.619559842	0.085123153	-0.212580663
7.645928157	0.038499675	-0.213305724
7.656006407	0.015061783	-0.213584584
7.662014356	-0.008433187	-0.213751909
7.662952076	-0.031944042	-0.21377979
7.654821288	-0.055395629	-0.213556704
7.646618955	-0.078797629	-0.213333604
7.630348995	-0.102042883	-0.212887419
7.551041143	-0.124153745	-0.210684371
14.71666139	-4.959781755	-0.558601429
14.70421375	-5.005874983	-0.558709254
14.69067741	-5.051612951	-0.558781137
8.628530755	-2.996685089	-0.328546783
8.619296241	-3.023143062	-0.328546783
8.608096581	-3.048905084	-0.328474899
8.582705669	-3.069578772	-0.327863803
8.577007554	-3.097253379	-0.328007599
8.526153333	-3.108491175	-0.32642596
8.356204637	-3.075607708	-0.320279201
8.306447884	-3.086263064	-0.318733504
8.284776254	-3.107170196	-0.318266203
8.104167538	-3.067826826	-0.311688086
8.060176849	-3.079479065	-0.310358097
7.975163269	-3.07507074	-0.307446441
8.022502881	-3.121629426	-0.309639176
15.23407446	-4.133368062	-0.440359605
7.791496317	-3.059299039	-0.301084002
8.562965824	-3.007309373	-0.411013957
15.09697617	-4.145938124	-0.436762226
7.663149814	-3.036071964	-0.296482911
8.519804841	-3.021545276	-0.409385261
15.20842584	-4.226764935	-0.440359605
7.612041275	-3.042875419	-0.29486533
8.265967088	-2.960102347	-0.397622612
14.95866605	-4.206830714	-0.433499468
7.482183912	-3.017621401	-0.290192356
8.216450616	-2.970841835	-0.395677266
14.96684123	-4.258721903	-0.434112978
7.483998811	-3.045082015	-0.290623715
8.141608744	-2.972056497	-0.392510411
14.96042941	-4.306555115	-0.434308184
7.502356496	-3.079412244	-0.291702082
8.096832778	-2.983893911	-0.390791234
14.81566084	-4.31414557	-0.430487705
7.362683546	-3.048509538	-0.286633691
8.034272109	-2.988866789	-0.388212499
14.83783431	-4.370028576	-0.431519491
7.367128303	-3.076860585	-0.287172903
7.809030229	-2.932378231	-0.377761867
7.320815046	-3.08392974	-0.285735061
7.757026994	-2.940035972	-0.375680771
14.77341207	-4.449746137	-0.430431915
7.269929266	-3.088789547	-0.28411748
7.706916689	-2.948115978	-0.373690155
14.81706635	-4.512523035	-0.432105136
6.952695947	-2.979220188	-0.272075554
7.650306982	-2.953398167	-0.371382889
14.80219688	-4.557665478	-0.432077241
6.870134087	-2.968822787	-0.269199868
7.603976814	-2.962349652	-0.369573233
14.72801404	-4.584340426	-0.430320365
6.878400509	-2.997471521	-0.269882848
7.464692372	-2.934496254	-0.363239523
14.73485862	-4.636103638	-0.430933875
6.89753439	-3.031023418	-0.270997186
7.465868781	-2.961435539	-0.363737163
14.74819049	-4.690073112	-0.431742591
7.398318052	-2.960941712	-0.360886987
6.865119688	-3.067174076	-0.270457973
6.872078543	-3.09560979	-0.271105011
14.74239109	-4.838080988	-0.432858062
6.845260967	-3.108826642	-0.270422032
7.183181062	-2.951828509	-0.351703074
14.72368296	-4.882028609	-0.432746512
6.839325378	-3.131477103	-0.270565828
7.066119839	-2.929095444	-0.346409884
14.75223742	-4.941782873	-0.434029323
6.815168263	-3.14574416	-0.269990673
7.026685669	-2.93804303	-0.344916936
14.74174024	-4.988621015	-0.434168738
6.81635823	-3.171697184	-0.270422032
7.017638772	-2.959586812	-0.344916936
14.72069105	-5.031884765	-0.434001428
6.840976487	-3.208720814	-0.271787991
6.833864303	-2.906809636	-0.336321142
8.704244667	-3.005175028	-0.256892694
6.822065556	-3.225422006	-0.271428516
6.953443489	-2.982898728	-0.342654881
8.672331022	-3.023966265	-0.256223423
6.819355489	-3.249776085	-0.271716108
6.840655023	-2.959396171	-0.33754265
8.617755594	-3.034621695	-0.254884852
6.807551505	-3.269816824	-0.271644195
6.829712166	-2.979570306	-0.33745217
8.597102738	-3.057027339	-0.254550201
6.816377245	-3.299831221	-0.272399058
6.865344715	-3.020220635	-0.339668986
8.578275591	-3.080010666	-0.254271341
8.535894017	-3.094390182	-0.253295315
6.820215222	-3.353499429	-0.273369601
6.872217304	-3.073709087	-0.340935733
6.836758087	-3.387719238	-0.274447997
6.866397499	-3.096420849	-0.341116693
6.826332779	-3.408678123	-0.274447998
6.859593834	-3.118712618	-0.341252413
8.20827965	-3.061390037	-0.244399441
6.797988718	-3.420621121	-0.273729076
6.849993372	-3.139742785	-0.341252413
6.788353669	-3.441912907	-0.273765018
6.849397353	-3.164933709	-0.341704813
8.0164718	-3.046012412	-0.239240391
6.810689902	-3.47954559	-0.275095036
6.855049661	-3.193103306	-0.342473921
8.057488402	-3.089919913	-0.240746272
6.797317057	-3.499051948	-0.274987181
6.847029465	-3.214968518	-0.342564401
8.00042759	-3.096225503	-0.239324046
6.77856579	-3.515748235	-0.274663677
6.840745755	-3.237669273	-0.342745361
7.702242514	-3.008027714	-0.230679167
6.773947799	-3.53976796	-0.274915298
6.809141359	-3.248318096	-0.341659573
7.710647877	-3.038607005	-0.231209007
6.898352701	-3.63176267	-0.280415048
6.818049844	-3.278283485	-0.342609641
7.608402107	-3.025313979	-0.22842033
6.931321037	-3.676322513	-0.282212337
6.818747988	-3.30441333	-0.34315252
7.576818718	-3.039709495	-0.227751059
6.824735526	-3.333208831	-0.343966868
7.55726533	-3.058815028	-0.227444303
6.831195752	-3.677100089	-0.279049089
6.817165944	-3.355454638	-0.344102588
7.467332563	-3.049110347	-0.225018156
6.796162736	-3.685178876	-0.278078546
6.81131424	-3.378573205	-0.344328788
7.477352372	-3.080000537	-0.225603772
6.804119737	-3.716551117	-0.278869351
6.824149617	-3.411067019	-0.345505056
7.307248726	-3.036188524	-0.220751477
6.792685486	-3.737408345	-0.278869351
6.834172916	-3.442323116	-0.346545604
7.192800907	-3.014544978	-0.217572388
6.788179962	-3.762105982	-0.279156914
6.804872715	-3.453779184	-0.345595535
7.064744506	-2.986390285	-0.213974995
6.78009653	-3.784862389	-0.27930071
6.812922518	-3.48419184	-0.346545604
6.958079363	-2.966495206	-0.211019007
6.773679448	-3.80858436	-0.279516389
6.825289433	-3.516974534	-0.347721871
6.905784017	-2.969270464	-0.20970833
6.764571849	-3.83082525	-0.279624214
6.812694219	-3.536976976	-0.347631392
6.877382846	-2.982092288	-0.2091227
6.763204069	-3.857502137	-0.280055573
6.82128518	-3.568047933	-0.3486267
6.867285887	-3.002777244	-0.20909482
6.751337559	-3.878233088	-0.280055573
6.819143787	-3.593615887	-0.349079099
6.859870047	-3.024638165	-0.209150595
6.782658463	-3.923949811	-0.281852862
6.804557711	-3.612645877	-0.348898139
6.807718281	-3.966373022	-0.283398559
6.761901769	-3.967516191	-0.281996658
6.806236737	-3.076119525	-0.208369759
6.752278893	-3.989768219	-0.282104512
6.781555098	-3.680838912	-0.349441018
6.801315141	-3.099058495	-0.208509204
6.762335824	-4.023751639	-0.283039083
6.778119111	-3.70594027	-0.349848207
6.814484124	-3.130341744	-0.20920637
6.77396228	-4.058861124	-0.284045597
6.747466973	-3.716115635	-0.348852899
6.802127389	-3.149973591	-0.2091227
6.761478201	-4.079624253	-0.284045597
6.796310068	-3.770236755	-0.351974514
6.800583264	-3.174632848	-0.20937368
6.77626088	-4.116953909	-0.285195848
6.793431872	-3.79594264	-0.352426913
6.817041496	-3.207824512	-0.210182396
6.745696119	-4.12677175	-0.284440985
6.782624629	-3.817256824	-0.352472153
6.81890931	-3.23429266	-0.210544926
6.745766967	-4.155309997	-0.284980168
6.766536211	-3.835584321	-0.352245954
6.803543123	-3.252610592	-0.210377616
6.754218476	-4.18915475	-0.285878828
6.777293047	-3.869203246	-0.353422221
6.809741739	-3.281278885	-0.210879576
6.971046638	-4.353308398	-0.295620223
6.853725413	-3.940768616	-0.358036813
6.776264005	-3.290801824	-0.210154516
6.94412161	-4.366163794	-0.295045068
6.857163815	-3.970787869	-0.358851132
6.796662987	-3.32651638	-0.211102662
6.907895634	-4.373015134	-0.294074526
6.944189175	-4.04968078	-0.364053842
6.798079398	-3.353101071	-0.211465192
6.805959351	-4.33778969	-0.290300181
6.931732262	-4.070965801	-0.364053842
6.789550724	-3.374831239	-0.211520967
6.787572806	-4.355411434	-0.290084531
6.840103958	-4.045427549	-0.35989168
6.794358547	-3.403256105	-0.211995048
6.789288046	-4.385976246	-0.29073154
6.783029443	-4.039812746	-0.357539144
6.788347716	-3.42633698	-0.212134478
6.756531524	-4.394253031	-0.289904793
6.792021446	-4.073448572	-0.358670172
6.787604813	-3.452131931	-0.212441233
6.758067929	-4.424814618	-0.290551831
6.70851636	-4.051403411	-0.354915169
6.783209163	-3.476130802	-0.212636438
6.786531052	-4.126985193	-0.35971072
6.772512414	-3.496925013	-0.212636438
6.755946811	-4.136831413	-0.358760652
6.76175207	-3.517686492	-0.212636438
6.790185804	-4.53567526	-0.29371508
6.745774313	-4.159111894	-0.358896372
6.765094006	-3.5458396	-0.213082624
6.762969822	-4.547563677	-0.293139925
6.738074939	-4.182949512	-0.359167841
6.766558929	-3.573112647	-0.213473034
6.755606695	-4.572771899	-0.293427487
6.748929064	-4.218427472	-0.360434559
7.069736182	-3.760989401	-0.223400724
6.782839274	-4.62161248	-0.295224806
6.868696377	-4.322650363	-0.367537406
7.085477243	-3.797299116	-0.224265215
6.778518317	-4.649183109	-0.295656165
7.016576819	-4.445825896	-0.376178411
7.021017446	-3.79052607	-0.222592008
6.755176539	-4.663712081	-0.295260748
6.826041875	-4.354506525	-0.366677818
6.867095657	-3.734680473	-0.218074349
6.75560816	-4.694679864	-0.295907785
6.771463454	-4.348975687	-0.364461031
6.872262764	-3.764856025	-0.218604204
6.74854363	-4.720539142	-0.29623129
6.773188767	-4.37949307	-0.36527535
6.830923274	-3.769501438	-0.217656044
6.741383456	-4.746398753	-0.296554794
6.758046675	-4.399162693	-0.36518487
6.808841612	-3.784612913	-0.217321408
6.765112517	-4.794216574	-0.298244258
6.783788828	-4.445610357	-0.367311206
6.792837519	-3.803042672	-0.217181978
6.745490603	-4.811467086	-0.298028579
6.781138113	-3.823864935	-0.217181978
6.759922689	-4.853121034	-0.299322655
6.771982432	-3.84613223	-0.217265633
6.774971992	-4.895493447	-0.300652643
6.769695387	-3.872349864	-0.217572389
6.783359116	-4.933301448	-0.301695098
6.770161545	-4.556411351	-0.369573232
6.75431848	-3.891104744	-0.217460838
6.787545971	-4.968255928	-0.302557787
6.796676327	-4.604615767	-0.371790048
6.761370832	-3.922844604	-0.218074349
6.752961381	-4.97483085	-0.301695098
6.790770687	-4.63107434	-0.372242447
6.757071389	-3.948108292	-0.218325329
6.771383618	-5.020523473	-0.303204825
6.77323663	-4.649624888	-0.372061488
6.755265592	-3.974903578	-0.218659979
6.78077808	-5.059801565	-0.304319163
6.75894003	-4.670383036	-0.372061488
6.766257889	-4.009368077	-0.21941292
6.765223169	-5.080581125	-0.304319163
6.744579267	-4.691097159	-0.372061488
6.744483153	-4.024473703	-0.219106165
6.760765865	-5.109748621	-0.304822405
6.749796206	-4.725517348	-0.373147276
6.768091172	-4.066769789	-0.220277411
6.760170156	-5.1419611	-0.305505355
6.728733905	-4.741600133	-0.372785356
6.811173953	-4.121150609	-0.222090048
6.756266325	-5.171788812	-0.306044569
6.728007469	-4.772046075	-0.373554435
6.826668626	-4.159190942	-0.223010299
6.75778477	-5.205909399	-0.306835373
6.758865973	-4.825169297	-0.376087931
7.08994196	-4.349473249	-0.232045618
6.755208306	-5.23702677	-0.307446441
6.75944456	-4.856958211	-0.376947519
7.07656464	-4.37120437	-0.232045618
6.752504209	-5.268176954	-0.308057537
6.782557228	-4.905187392	-0.379073855
7.032562701	-4.373888969	-0.231041682
6.745741915	-5.296274335	-0.308488895
6.777975861	-4.933615304	-0.379661974
7.014027449	-4.392260827	-0.230874372
6.734950497	-5.321281736	-0.308740516
6.778119189	-4.965604105	-0.380521562
6.972615222	-4.396165718	-0.229954106
6.731109135	-5.351870435	-0.309315642
6.767677385	-4.989932407	-0.380793002
6.821533552	-4.330214715	-0.225408566
6.741969292	-5.394348038	-0.310573747
6.774799111	-5.027340706	-0.38205975
6.763575077	-4.322592147	-0.223930565
6.740177677	-5.426914985	-0.311256727
6.786556826	-5.068425783	-0.383597937
6.780544646	-4.362794243	-0.224934486
6.73980241	-5.460779341	-0.31201159
6.770975257	-5.089222763	-0.383597937
6.74447585	-4.368902769	-0.224181545
6.731537068	-5.488377983	-0.312407007
6.781621334	-5.129859402	-0.385090884
6.762857797	-4.410323285	-0.225241241
6.754069818	-5.541331434	-0.314240267
6.762671733	-5.148220489	-0.384909924
6.738578758	-5.563298991	-0.31431215
6.774600842	-5.190207805	-0.386493352
6.737621829	-5.597357176	-0.315067013
6.777632816	-5.225607039	-0.38757914
6.751108081	-4.491759965	-0.226217282
6.726551791	-5.62312931	-0.315354576
6.767882855	-5.25127489	-0.387941059
6.768025606	-4.533032906	-0.227249098
6.735270152	-5.665612148	-0.316576739
6.76355088	-5.281236091	-0.388619688
6.755744227	-4.554893162	-0.227304858
6.717857005	-5.686249129	-0.31657674
6.744960199	-5.300109794	-0.388483968
6.754972009	-4.584580054	-0.227751059
6.713313815	-5.717848078	-0.317187836
6.728667556	-5.320778222	-0.388483968
6.754080793	-4.61430446	-0.228197244
6.732921597	-5.770282861	-0.318949183
6.72091092	-5.34823865	-0.388981607
6.731656298	-4.629339741	-0.227918369
6.709132548	-5.785691203	-0.31866162
6.718506935	-5.380072548	-0.389795956
6.726463003	-4.656229034	-0.228225124
6.757018911	-5.863229013	-0.321788927
6.778198743	-5.462087757	-0.394229558
6.723628348	-4.684843856	-0.228615535
6.751043296	-5.894448257	-0.322364052
6.769944732	-5.489778279	-0.394727197
6.727228342	-4.71807717	-0.229229045
6.795992561	-5.970536907	-0.325383534
6.760036242	-5.516206544	-0.395134386
6.73150469	-4.751953121	-0.229870451
6.759673626	-5.975473797	-0.324520817
6.741536714	-5.535651945	-0.395043906
6.725042387	-4.778372154	-0.230149311
6.749523141	-6.003490062	-0.324916234
6.727602563	-5.558854285	-0.395224866
6.741248167	-4.821078376	-0.231209007
6.740008854	-6.032166258	-0.325347592
6.788099012	-5.643974351	-0.399794188
6.737783656	-4.849913271	-0.231599418
6.748204878	-6.076890867	-0.326641639
6.709456892	-5.61349092	-0.396174905
6.72125352	-4.869388678	-0.231543643
6.738416602	-6.105617586	-0.327072998
6.741113055	-5.675224888	-0.399070349
6.776552412	-4.941224022	-0.23396979
6.721130159	-6.127608967	-0.327144881
6.751872908	-5.719771215	-0.400744256
6.77183725	-4.969679453	-0.23433232
6.729547233	-6.17319568	-0.328474899
6.728971045	-5.73592232	-0.400427576
6.804802892	-5.02606503	-0.236005527
6.72306037	-6.20533511	-0.329085966
6.753804515	-5.79296122	-0.402961043
6.758063484	-5.023660754	-0.234917951
6.713510864	-6.234772785	-0.329553267
6.722387526	-5.801905339	-0.402146724
6.734615361	-5.038382457	-0.234639076
6.70384366	-6.26420999	-0.330020567
6.723412268	-5.838877437	-0.403277751
6.742284377	-5.076456674	-0.235447792
6.699883799	-6.299123199	-0.33077543
6.746087919	-5.894973529	-0.405720767
6.803960141	-5.155677544	-0.238152814
6.729893891	-6.366348816	-0.333219757
6.76398147	-5.947304975	-0.407892314
6.788110466	-5.176527714	-0.238152814
6.705987123	-6.382831822	-0.333004078
6.789098736	-6.006420836	-0.410516289
6.768232159	-5.19428598	-0.238013369
6.658224735	-6.376418083	-0.331602206
6.78780076	-6.042498762	-0.411556837
6.756220401	-5.218081387	-0.238152814
6.729305014	-6.484186361	-0.336131384
6.75434832	-6.04996454	-0.410652008
6.74333667	-5.241238218	-0.23826435
6.712250115	-6.507583573	-0.33627518
6.735013693	-6.069989244	-0.410606769
6.74061021	-5.272371491	-0.23873843
6.704414446	-6.540008769	-0.336886247
6.737079618	-6.109413575	-0.411873516
6.738541467	-5.304155562	-0.239240391
6.720692963	-6.596247725	-0.338719507
6.756677976	-6.165067059	-0.414226052
6.730072294	-5.331010963	-0.239519266
6.702557719	-6.618942174	-0.338827332
6.720071151	-6.169553051	-0.413140264
6.713685392	-5.35163355	-0.239519266
6.694979702	-6.652152826	-0.33947437
6.706248169	-6.194885884	-0.413456944
6.73544275	-5.402853752	-0.240885717
6.711290796	-6.709402311	-0.341343572
6.702577134	-6.229713502	-0.414407012
6.723502173	-5.427259421	-0.241053027
6.681515621	-6.720747206	-0.340876271
6.755666489	-6.317799069	-0.418885854
6.696733537	-5.439668276	-0.240690497
6.727521466	-6.330280682	-0.418342975
6.721032871	-5.493716874	-0.242168498
6.713674532	-6.836485231	-0.344650616
6.737086224	-6.3783625	-0.420152601
6.6910225	-5.503515875	-0.241694418
6.693367074	-6.857765653	-0.344686558
6.751481898	-6.431386266	-0.422278937
6.743412109	-5.581380463	-0.244204235
6.653508849	-6.85890119	-0.343716015
6.719458489	-6.440317879	-0.421509829
6.734706139	-5.609079819	-0.244510991
6.66364798	-6.911656319	-0.345333567
6.718364238	-6.478932622	-0.422686097
6.731255999	-5.641272361	-0.245012951
6.983970186	-7.288520109	-0.363090923
6.707059052	-6.507861404	-0.423229006
6.724615469	-5.670919023	-0.245403362
7.013955329	-7.364912181	-0.365822812
6.70421731	-6.545156319	-0.424314794
6.671363275	-5.661125013	-0.244092685
6.932934234	-7.324703806	-0.362767418
6.724661901	-5.741932402	-0.246686143
7.052171879	-7.496613658	-0.370208224
6.695641385	-5.752764857	-0.246267838
6.84963983	-7.326225546	-0.36075442
6.661324279	-5.758897094	-0.245654342
6.66318769	-7.170773009	-0.352091422
6.746194166	-5.868532049	-0.249446941
6.658784836	-7.210270173	-0.353026023
6.713114677	-5.876033705	-0.24888922
6.643390409	-7.238027692	-0.353385498
6.709308333	-5.909154839	-0.249419046
6.61576511	-7.252468666	-0.353097935
6.671696719	-5.912473158	-0.248693985
6.586100372	-7.264587058	-0.352702518
6.726641688	-5.998110716	-0.251426888
6.564450788	-7.285501275	-0.35273846
6.533401777	-7.295928035	-0.35227116
6.793351694	-7.633211023	-0.367548218
6.89238813	-7.792500336	-0.374198248
6.868448714	-7.813609025	-0.374198248
