x	y	z
3.829314398	3.035747246	-0.717154634
4.136730342	3.532746577	-0.850411265
3.787624171	3.481454142	-0.854169299
3.472846855	3.436447052	-0.86121278
3.613855549	2.860832595	-0.850679009
3.313894611	2.826450282	-0.846315438
3.055276626	2.804569545	-0.847326839
2.838185265	2.8087316	-0.857197313
2.95719238	2.3354628	-0.841396083
2.763431317	2.353374872	-0.845933112
2.582070401	2.369695059	-0.853174234
2.393218391	2.366894971	-0.855595358
2.464174686	1.941285048	-0.826311999
2.332416269	1.983158413	-0.837372769
2.190450427	2.009229615	-0.844407211
2.032359311	2.010706803	-0.844354717
4.401514206	4.329643049	-0.855075542
3.823065902	3.011739529	-0.714250635
4.145289512	3.518120574	-0.849947898
3.800472213	3.471813651	-0.854660679
3.487586144	3.429919683	-0.86225437
3.604838589	2.835747639	-0.846504596
3.336029544	2.827695187	-0.849748785
3.06820947	2.79914484	-0.848527872
2.852365353	2.805495881	-0.858876436
2.973556655	2.333609841	-0.844011176
2.769151551	2.343627375	-0.845479163
2.57784277	2.351285968	-0.849389699
2.385262739	2.344594754	-0.850175508
2.494485116	1.95279065	-0.834463052
2.3193338	1.959806809	-0.83051335
2.188784604	1.995371342	-0.841401229
2.063136551	2.028669006	-0.854551579
4.408401953	4.309886518	-0.853840832
3.833066964	3.000606092	-0.714395832
4.156063233	3.5053866	-0.849947898
3.814757516	3.463453217	-0.855479646
3.496684007	3.417826934	-0.861907173
3.601125157	2.81498487	-0.843600599
3.353698287	2.825036166	-0.852037663
3.070250235	2.783795696	-0.846726323
2.867251427	2.802882928	-0.860765485
2.982241352	2.325676398	-0.844447006
2.780055336	2.338255034	-0.846614035
2.590803038	2.348586721	-0.851281966
2.406309781	2.350811307	-0.855102665
2.515729807	1.957003621	-0.839557405
2.332722085	1.958884829	-0.833151626
2.194183168	1.988000884	-0.841127941
2.052203417	2.005571956	-0.847470429
3.850844914	2.995514562	-0.715993057
4.169069612	3.494523448	-0.850411264
3.828294974	3.454376798	-0.85613482
3.505740663	3.405710837	-0.861559977
3.61362766	2.806939735	-0.84450808
3.362349668	2.814733863	-0.852037663
3.096244507	2.790104235	-0.851530456
2.86321449	2.781809475	-0.856987444
2.988590875	2.315918229	-0.84422909
2.782732589	2.32596753	-0.84525219
2.597996258	2.340627216	-0.851281967
2.399603968	2.329914905	-0.850175508
2.519426772	1.947501932	-0.838793272
2.350570078	1.961607474	-0.83737277
2.162385628	1.947144729	-0.826644609
2.067977957	2.008621302	-0.851435866
3.863930935	2.986711712	-0.716719043
4.181289327	3.482981222	-0.850720137
3.836671705	3.44063975	-0.855643441
3.515464219	3.394255177	-0.861386407
3.606652702	2.783822626	-0.840878156
3.353612575	2.789965449	-0.847650641
3.099680879	2.776016514	-0.850129212
2.865405555	2.766899632	-0.855098395
2.998775253	2.30912016	-0.84510075
2.795099511	2.32177522	-0.84684101
2.587068537	2.316442102	-0.845368649
2.40883289	2.324561009	-0.850914603
2.534592518	1.946832094	-0.841849918
2.348410075	1.947613561	-0.834470739
2.191287126	1.961028962	-0.835389266
2.076200601	2.0042656	-0.85228559
3.905247058	2.999553357	-0.722672355
4.191194116	3.469506789	-0.8505657
3.842054219	3.424258141	-0.854496886
3.518755292	3.376635213	-0.859650422
3.614396181	2.77214593	-0.84069666
3.365939161	2.782791066	-0.848604317
3.117697099	2.774961915	-0.852731432
2.84989647	2.735077804	-0.847962052
3.001969821	2.296943961	-0.844011176
2.812724147	2.321868882	-0.850018651
2.617390161	2.329163427	-0.852937666
2.429243197	2.329906381	-0.855595359
2.532097537	1.932593255	-0.839047963
2.355118384	1.941012922	-0.834734547
2.189386677	1.94726493	-0.832383286
2.086492028	2.001870396	-0.853985096
3.917576885	2.989959228	-0.723253142
4.201056105	3.456004404	-0.850411266
3.839249292	3.400681028	-0.851548661
3.537650192	3.373980317	-0.861733605
3.633834004	2.769389313	-0.843237607
3.373702291	2.771828142	-0.848413581
3.129131375	2.767980437	-0.85353216
2.851906662	2.720248072	-0.84607306
3.005895037	2.285360364	-0.843139459
2.815316595	2.309522504	-0.848656805
2.626706944	2.323053455	-0.853647258
2.403408203	2.291012941	-0.844016618
2.539555706	1.925984407	-0.839557404
2.37822546	1.947835638	-0.840802479
2.185260173	1.931619727	-0.828557501
2.089847638	1.992812334	-0.852852074
3.853415749	2.92232557	-0.709749352
4.044886863	3.306776208	-0.81674078
3.844481063	3.384323441	-0.850402106
3.545125848	3.360401089	-0.861039211
3.639961308	2.756446865	-0.842693118
3.384471285	2.763327289	-0.848985786
3.134665352	2.7557797	-0.852731432
2.8581102	2.709467645	-0.845443396
3.012892186	2.276127685	-0.843139459
2.820879135	2.299643672	-0.848202856
2.610468426	2.294457708	-0.846078244
2.416054241	2.288961122	-0.845987447
2.542363416	1.915856133	-0.838538521
2.371472607	1.930178883	-0.836317469
2.194789395	1.92808065	-0.82992382
2.09177515	1.982433175	-0.851152626
3.914682481	3.180344575	-0.788476079
3.847421484	3.366017226	-0.84876423
3.556852325	3.350859483	-0.861386407
3.646043464	2.74349286	-0.84214863
3.388359399	2.749219947	-0.847841376
3.120970719	2.726810703	-0.846726323
2.860004851	2.694652213	-0.843554348
3.011275182	2.26042873	-0.840742338
2.815056583	2.280556557	-0.84434429
2.616763638	2.285798716	-0.845841673
2.420242895	2.27888031	-0.845002061
2.544358972	1.905149322	-0.837264949
2.390132431	1.933206499	-0.840802479
2.200694475	1.921337894	-0.82992382
2.094356673	1.972718466	-0.849736418
3.895978014	3.14535617	-0.782761366
3.851030051	3.348372108	-0.847290088
3.568553588	3.341277582	-0.861733604
3.667044814	2.741715565	-0.845052568
3.392193032	2.735114676	-0.846696908
3.158913346	2.742917556	-0.854733192
2.907510456	2.722620992	-0.855098395
3.027583822	2.258181709	-0.843357374
2.815971139	2.267023552	-0.842528494
2.624497789	2.278396849	-0.846078243
2.421561752	2.266146593	-0.843031175
2.534675017	1.88578981	-0.832170539
2.399059622	1.928281582	-0.841857723
2.19858639	1.907642777	-0.826917895
2.101099112	1.966939303	-0.85001966
3.900985366	3.129679107	-0.78183469
3.86427035	3.339121666	-0.847945262
3.572299126	3.32427585	-0.860171189
3.671491974	2.727520345	-0.844145088
3.405930702	2.728991333	-0.848032111
3.153961941	2.721691587	-0.851130092
2.912986737	2.711023716	-0.854258805
3.037634124	2.251206958	-0.844229091
2.819110502	2.255331756	-0.841393622
2.628532723	2.267795585	-0.84513208
2.42637396	2.25672664	-0.842292138
2.510121989	1.855585928	-0.822236472
2.400442174	1.917300484	-0.840274802
2.211713552	1.907170302	-0.829650589
2.084655368	1.93957895	-0.840955762
3.90593372	3.114001016	-0.780907959
3.876741609	3.329178578	-0.848436642
3.583204194	3.31396915	-0.860344817
3.671930756	2.710403191	-0.842330126
3.411983317	2.716695005	-0.847459907
3.156347481	2.706900013	-0.849528696
2.925597034	2.706057565	-0.855518191
3.013090764	2.218729145	-0.835512209
2.827541201	2.247884203	-0.84184757
2.628101683	2.253396259	-0.842766787
2.441826362	2.257166465	-0.845248408
2.55477153	1.876498848	-0.834972494
2.356449011	1.870349192	-0.822862496
2.22412816	1.906009559	-0.832109999
2.106087086	1.947498785	-0.847187187
3.906950211	3.095254155	-0.779208987
3.894441011	3.323673131	-0.85007452
3.596254623	3.305626291	-0.861039211
3.687365758	2.704359489	-0.843963592
3.414143401	2.701341587	-0.845933968
3.166128626	2.698474873	-0.84992906
2.935324909	2.698392501	-0.855937986
3.005705824	2.199101489	-0.831589628
2.834424449	2.239198917	-0.841847571
2.632044516	2.242802035	-0.841820624
2.452308264	2.252942798	-0.846480197
2.566765502	1.87321261	-0.837010201
2.40837438	1.899548805	-0.838955689
2.236556198	1.904790335	-0.834569463
2.094398688	1.924804447	-0.840106038
3.881494513	3.055751439	-0.772258668
3.905371584	3.312347592	-0.850238312
3.604924898	3.293249136	-0.860692013
3.690876659	2.689559255	-0.842874615
3.426273329	2.693888073	-0.846887643
3.178130502	2.691914826	-0.850929939
2.943589673	2.68937439	-0.855937986
3.010070078	2.188148305	-0.830935826
2.841280884	2.230492547	-0.841847572
2.64484469	2.239739629	-0.843712892
2.453482836	2.240180618	-0.84450931
2.57328315	1.865896712	-0.837264949
2.421023497	1.897506182	-0.8413301
2.246794918	1.901648429	-0.836209068
2.113040272	1.930011963	-0.845204441
3.868284138	3.026174709	-0.767779558
3.899675426	3.286999176	-0.846798707
3.615740768	3.282835825	-0.860865583
3.702296786	2.680529811	-0.843600599
3.443030859	2.690011695	-0.848985786
3.185624694	2.681520714	-0.850729728
2.95834116	2.686246384	-0.857826977
3.052372128	2.204617892	-0.840742338
2.847342561	2.221166182	-0.841620597
2.659137698	2.237871154	-0.846078242
2.459626349	2.231991749	-0.844262965
2.570364818	1.851775361	-0.834463052
2.431399653	1.893625829	-0.842913022
2.270286216	1.909607218	-0.842767606
2.121791831	1.926098729	-0.846337464
3.870529867	3.008835436	-0.766389518
3.91125376	3.276286506	-0.847126294
3.622139539	3.268428741	-0.85999762
3.707309827	2.666861789	-0.842874614
3.455919713	2.683047932	-0.850130254
3.19759411	2.674878054	-0.85173061
2.964390913	2.675192605	-0.857197314
3.061500305	2.196950069	-0.841396083
2.852604229	2.211226743	-0.841166648
2.658537743	2.223468947	-0.843712892
2.462144282	2.220540573	-0.84278483
2.572102239	1.841066697	-0.833189422
2.434146535	1.883796102	-0.841857723
2.272443905	1.899548397	-0.84140123
2.132675609	1.924077071	-0.848320154
3.875833223	2.993926744	-0.765617222
3.917496395	3.261115831	-0.846307328
3.628484024	3.254013056	-0.859129656
3.710673895	2.652044452	-0.841785637
3.464912229	2.67303231	-0.850320989
3.205032012	2.664428975	-0.851530456
2.966761456	2.660862694	-0.85551819
3.058690078	2.180748379	-0.838781049
2.850887761	2.195927537	-0.83866993
2.668335567	2.21778658	-0.844659055
2.479048939	2.222032622	-0.84623385
2.571433935	1.828683461	-0.831151658
2.440678917	1.876907381	-0.842121589
2.250883328	1.869824965	-0.831290196
2.130714157	1.910482294	-0.845204441
3.885000063	2.98202155	-0.765617221
3.9274828	3.249081723	-0.846307327
3.635509282	3.240244883	-0.858435262
3.709171066	2.633815671	-0.839607683
3.466864147	2.657611636	-0.848795051
3.204127281	2.647095252	-0.849128389
2.968342198	2.645893304	-0.853629142
3.035102553	2.149916934	-0.830499996
2.875398902	2.200785079	-0.843890343
2.663890358	2.200308385	-0.841111031
2.490920168	2.218929348	-0.847958333
2.569924173	1.815763739	-0.828859203
2.424966008	1.853012269	-0.834734549
2.266252923	1.870871634	-0.834842751
2.138713418	1.905850568	-0.846054223
3.894130343	2.970088589	-0.765617221
3.932860218	3.233258361	-0.845324625
3.641009933	3.225157994	-0.857393671
3.714823355	2.620722994	-0.839063194
3.467192345	2.641014729	-0.846887643
3.21223322	2.6372528	-0.849128389
2.971322768	2.632235664	-0.852159888
3.069618764	2.160254495	-0.838127246
2.879811732	2.190184397	-0.843209419
2.675885409	2.196440472	-0.842766787
2.495539006	2.209349396	-0.847219235
2.573108318	1.806204005	-0.828095013
2.436016914	1.849647004	-0.836581279
2.264544933	1.857808952	-0.832109998
2.145268394	1.899915954	-0.846337464
3.902436801	2.957530868	-0.765462785
3.934357731	3.214311651	-0.843522896
3.64793069	3.211369264	-0.856699277
3.715598731	2.604233895	-0.837429671
3.494063835	2.644583388	-0.851465458
3.212717741	2.621191609	-0.847126629
2.977916654	2.62181523	-0.85174015
3.069833146	2.14635284	-0.836383869
2.871754699	2.170182745	-0.838896903
2.665294463	2.174095268	-0.837326494
2.502305592	2.201682941	-0.847219237
2.572292199	1.793876065	-0.82605725
2.442450253	1.842745633	-0.836845091
2.304529769	1.87881298	-0.844680496
2.155406624	1.897127334	-0.848036913
3.928855597	2.95861988	-0.768860727
3.943434697	3.20160428	-0.843359102
3.662954197	3.204701819	-0.857914438
3.714693683	2.586640993	-0.835433213
3.472348391	2.611430461	-0.844217294
3.221505311	2.611939809	-0.847326839
2.969022471	2.597858543	-0.846912592
3.082816212	2.14137884	-0.838127246
2.899426502	2.177151356	-0.845025215
2.681009302	2.17325009	-0.840164925
2.495186276	2.181874018	-0.842538483
2.600835113	1.801946803	-0.833444172
2.451179226	1.837557992	-0.83790039
2.288607929	1.854173227	-0.836755643
2.173488073	1.901240036	-0.852852074
3.933167435	2.943000874	-0.767933994
3.951702604	3.188252142	-0.843031514
3.674998278	3.195387414	-0.858435262
3.709672046	2.566280845	-0.832529274
3.474053197	2.596064395	-0.842691357
3.22645184	2.599585384	-0.846526113
3.006490297	2.614400307	-0.855308264
3.088567988	2.131356628	-0.837909331
2.889700111	2.156015535	-0.840258751
2.686907597	2.164404935	-0.839928355
2.53405631	2.202180878	-0.853378183
2.593606111	1.785186666	-0.829368645
2.471502863	1.840977131	-0.842913023
2.295034837	1.847746404	-0.837028872
2.181482092	1.896450489	-0.853701797
3.86289042	2.871971843	-0.752488822
3.964544454	3.178581836	-0.84368669
3.681803683	3.181522035	-0.857740868
3.724011377	2.559343502	-0.833981243
3.482789596	2.585978942	-0.842882092
3.225999024	2.582938389	-0.844324255
2.97750929	2.573199181	-0.844813676
3.065308687	2.101452294	-0.829846251
2.86970065	2.127419944	-0.832541674
2.699603333	2.161009204	-0.841820624
2.538600112	2.19249581	-0.852639088
2.599868911	1.777766992	-0.829623335
2.46705996	1.825926195	-0.839483311
2.303697261	1.843100349	-0.83812196
2.186564376	1.889121954	-0.853418557
3.810493055	2.814904248	-0.740596085
3.983536209	3.173780426	-0.845652212
3.693788591	3.172136259	-0.858261634
3.739967375	2.55345122	-0.835796205
3.493076596	2.577030134	-0.843454354
3.232374647	2.57180902	-0.843923891
2.974263986	2.554496618	-0.841665355
3.08384125	2.100278886	-0.833115089
2.876998124	2.119183491	-0.832768649
2.7176264	2.161789532	-0.845368648
2.56664205	2.203002835	-0.859783419
2.610910265	1.773585938	-0.831406407
2.467210805	1.814348641	-0.83763658
2.315364815	1.840813107	-0.840308139
2.177797232	1.8699095	-0.84775367
3.817518113	2.802031226	-0.740287154
3.995574858	3.163381103	-0.846143534
3.707248698	3.163985679	-0.859129656
3.740459026	2.536997296	-0.83416274
3.51046696	2.57326561	-0.845743233
3.239481149	2.561272509	-0.843723739
3.008858905	2.568210819	-0.849221437
3.100778505	2.097917731	-0.835948039
2.914922522	2.133354435	-0.841847572
2.71204997	2.143801438	-0.841584111
2.543894245	2.1699593	-0.849929163
2.619545441	1.767731113	-0.832425288
2.479775056	1.811892358	-0.840010991
2.311943923	1.8265451	-0.837028872
2.185712548	1.865086964	-0.848603396
3.832482686	2.79496356	-0.741522759
4.003710265	3.149888201	-0.845816005
3.716938081	3.152597085	-0.859129656
3.766982362	2.53814827	-0.83833721
3.508823338	2.555548463	-0.843454355
3.254257472	2.556769559	-0.845525288
3.026416766	2.567189742	-0.851950018
3.11368047	2.092750216	-0.837691416
2.914364883	2.119246415	-0.839804801
2.726255248	2.141472818	-0.843949462
2.563107476	2.172798419	-0.854117222
2.641021064	1.770455353	-0.83751964
2.452538334	1.780475814	-0.828930428
2.303917613	1.808751483	-0.832109999
2.197275747	1.863334707	-0.850869383
3.846639901	2.787250373	-0.742603927
4.008692005	3.13394451	-0.844833243
3.718309621	3.134197024	-0.857220102
3.736341945	2.500870516	-0.829806773
3.521418721	2.548224551	-0.844598766
3.25899722	2.544361982	-0.84472462
3.029793351	2.554111775	-0.850690691
3.109534503	2.076142479	-0.834858465
2.906643174	2.100029165	-0.835719318
2.720557705	2.123533161	-0.840164925
2.556419722	2.153684834	-0.849682815
2.634367288	1.754304637	-0.833698864
2.446254701	1.764479076	-0.824973096
2.313248053	1.804633083	-0.833476374
2.208848799	1.861529085	-0.853135314
3.854371201	2.774858796	-0.742449492
4.02140437	3.124052028	-0.845488418
3.724887858	3.120245081	-0.856525707
3.739083664	2.486128863	-0.828717797
3.51009135	2.523655927	-0.840021008
3.259820839	2.528946418	-0.842923069
3.042861275	2.549199583	-0.852159887
3.117515895	2.067671771	-0.835294294
2.908325324	2.087694205	-0.83435747
2.733969542	2.120536034	-0.842293706
2.55186829	2.13649927	-0.845987447
2.647802131	1.751549391	-0.836246067
2.470473298	1.770450667	-0.831304839
2.3309378	1.806957235	-0.837848731
2.201315303	1.843659576	-0.848036913
3.867687634	2.766469413	-0.743376166
4.031750818	3.112302638	-0.845652211
3.721576361	3.098091243	-0.853574563
3.732743748	2.46543228	-0.825632361
3.498646612	2.499181093	-0.835443252
3.264460251	2.516540777	-0.842122341
3.039396883	2.530468581	-0.849011511
3.114879984	2.052191368	-0.832897175
2.91154496	2.076499688	-0.833449572
2.74584943	2.116290201	-0.843949462
2.538295433	2.111923607	-0.839335866
2.635384002	1.731734856	-0.830642217
2.464107001	1.754471132	-0.827347507
2.321991309	1.788644224	-0.832656571
2.194429919	1.826467443	-0.84322175
3.839916141	2.728835946	-0.736425847
4.023277131	3.086109271	-0.841885019
3.729545996	3.085403509	-0.853227366
3.756734456	2.464757899	-0.829262285
3.50949967	2.490708287	-0.836206193
3.262054298	2.498768464	-0.839520122
3.029819786	2.506796759	-0.844184012
3.104012152	2.031402145	-0.828320791
2.913928864	2.064742111	-0.832314701
2.747700853	2.104311616	-0.842530218
2.541028122	2.101038337	-0.838104077
2.65526057	1.733155584	-0.835227186
2.471052959	1.748017212	-0.827875128
2.344272762	1.794374894	-0.838668534
2.208152326	1.826450307	-0.846337465
4.015894131	2.621197434	-0.703796041
3.836163359	2.708494592	-0.734109073
4.027234262	3.069565551	-0.840738465
3.737472834	3.072696156	-0.852880169
3.759335408	2.449999229	-0.828173308
3.510706486	2.475404163	-0.834680255
3.276721642	2.494089512	-0.841321672
3.035230503	2.495626584	-0.843554346
3.102865323	2.017082208	-0.826359499
2.919453158	2.055232173	-0.832087726
2.741772575	2.086457563	-0.838745738
2.554950132	2.09938551	-0.840567654
2.665433693	1.728157638	-0.836755509
2.46535574	1.732663078	-0.824181606
2.352063739	1.788921335	-0.839488337
2.210040922	1.816622269	-0.8449212
4.027237758	2.611017398	-0.70437683
3.829895683	2.686499898	-0.731328934
4.030341346	3.052430922	-0.839428117
3.74688204	3.06121516	-0.852880168
3.748672866	2.426697351	-0.824180392
3.529540245	2.47250671	-0.83735066
3.285139465	2.484615849	-0.841521825
3.050443916	2.492489364	-0.845653265
3.11395839	2.01072978	-0.827667045
2.922552654	2.044032893	-0.831179829
2.745060743	2.075692048	-0.837799575
2.558376107	2.089085154	-0.839582211
2.662592932	1.714736268	-0.834208304
2.479359443	1.731165546	-0.827083695
2.302286056	1.739938371	-0.819812842
2.212632941	1.807406521	-0.843788235
4.041052099	2.602399524	-0.705393267
3.834066879	2.67191295	-0.730556696
4.042051685	3.041831231	-0.839919497
3.754727103	3.048464034	-0.852532972
3.772643221	2.425822352	-0.827810315
3.537915	2.46222742	-0.837541396
3.288047112	2.470993816	-0.840320791
3.058835566	2.48373517	-0.845863134
3.120112582	2.001166839	-0.827667046
2.904016562	2.017829754	-0.82414362
2.776273585	2.085937051	-0.84536865
2.597886605	2.108096838	-0.850421912
2.675987239	1.711770412	-0.836755509
2.517946174	1.746641451	-0.8381642
2.327612735	1.747885103	-0.826917896
2.213699894	1.796983084	-0.842088785
4.059018488	2.596387359	-0.707135689
3.842246083	2.660137753	-0.730556696
4.033983929	3.016419433	-0.836316099
3.756397492	3.030746569	-0.850796988
3.772608618	2.409472826	-0.826176849
3.544644852	2.450803321	-0.83735066
3.301107965	2.464998195	-0.841722036
3.064158418	2.472497276	-0.84523347
3.121298573	1.988438684	-0.826359498
2.928627493	2.021635957	-0.829364032
2.778767147	2.074503472	-0.844185975
2.593779719	2.091599329	-0.84697289
2.68693962	1.707182616	-0.838538522
2.479609936	1.708804404	-0.823653985
2.332193082	1.740160558	-0.826644608
2.243088926	1.809451781	-0.851152624
4.090347976	2.598778306	-0.71120138
3.850389238	2.648337366	-0.730556697
4.046386479	3.006382414	-0.836971272
3.751847667	3.008119035	-0.847672273
3.779983087	2.397887415	-0.82617685
3.548910595	2.437693911	-0.836587663
3.325178425	2.467118458	-0.845925594
3.059525029	2.45329874	-0.841875225
3.14965233	1.992943214	-0.832243373
2.94927322	2.022555936	-0.833449572
2.771852379	2.05612773	-0.840164925
2.595646525	2.079995502	-0.845494754
2.682351121	1.692738141	-0.835481934
2.510310113	1.718625975	-0.832096328
2.330566331	1.727841311	-0.824185144
2.241146758	1.796563127	-0.848320154
4.123403841	2.602057632	-0.715557409
3.845443887	2.627593496	-0.728085486
4.065114911	3.0009849	-0.838936736
3.773382632	3.006413125	-0.85044979
3.788985934	2.387327712	-0.826539842
3.562048558	2.430667587	-0.837922866
3.32878868	2.453998632	-0.844924772
3.08844751	2.460961066	-0.847752183
3.164841306	1.988983419	-0.834640551
2.954659623	2.012949796	-0.833222598
2.77345455	2.044155294	-0.838745737
2.59443403	2.065984981	-0.843031175
2.66377004	1.669607487	-0.828095014
2.450966915	1.666977209	-0.810726693
2.342052264	1.725247252	-0.826371323
2.251148746	1.793264163	-0.850019658
4.138074048	2.593598448	-0.716719043
3.869018841	2.626326588	-0.731020062
4.05282526	2.972745798	-0.834514427
3.777183449	2.990543387	-0.84923463
3.787122597	2.369953557	-0.824543384
3.574364171	2.42303288	-0.839067276
3.32918807	2.438563871	-0.843123222
3.099049312	2.453901912	-0.848591773
3.161821273	1.973579794	-0.832243371
2.958401836	2.00223793	-0.832541675
2.775009427	2.032192492	-0.837326493
2.609880433	2.065232578	-0.845987448
2.662312145	1.657338838	-0.826057249
2.525603451	1.706430734	-0.833679248
2.354320351	1.723167074	-0.828830788
2.235584977	1.769682341	-0.842088785
4.161970806	2.590825337	-0.719477903
3.877877368	2.614996579	-0.731174498
4.069898927	2.966108014	-0.836152304
3.777052872	2.971633731	-0.847151449
3.7910347	2.356247248	-0.823817399
3.576895752	2.408765436	-0.837922865
3.331900759	2.424879442	-0.841922188
3.090427082	2.431686144	-0.844184011
3.161225458	1.959756421	-0.830499997
2.967763527	1.995326026	-0.833449574
2.763946629	2.011092872	-0.83212277
2.622299041	2.062008386	-0.847958333
2.689591999	1.662893536	-0.83293473
2.50439732	1.680934917	-0.824973096
2.371265399	1.724422337	-0.832929801
2.256833147	1.775267102	-0.848036912
4.205245029	2.599896644	-0.725576412
3.905582134	2.616283984	-0.73488137
3.911985448	2.832686251	-0.801920046
3.795462105	2.967310664	-0.84923463
3.791551469	2.340473155	-0.822365372
3.585900598	2.398872071	-0.838304335
3.336942721	2.412923415	-0.841321671
3.100183481	2.42400022	-0.844813675
3.157250039	1.943908407	-0.827884961
2.961723083	1.978098049	-0.830044957
2.780339798	2.010004048	-0.835197713
2.595010588	2.027697399	-0.837118634
2.682320201	1.64704409	-0.829113896
2.489479179	1.659866221	-0.818377544
2.39291864	1.728969894	-0.838668535
2.250179534	1.75888482	-0.843504993
4.237652844	2.601996373	-0.729787243
3.936621154	2.619615407	-0.739205986
3.902239285	2.807420544	-0.798152853
3.806103087	2.95686062	-0.849581826
3.790330155	2.323689854	-0.820550409
3.585885311	2.382969663	-0.836587663
3.339555608	2.399244662	-0.840120639
3.104517414	2.412077979	-0.843974142
3.159868539	1.932176228	-0.827013244
2.973458365	1.972771022	-0.831633776
2.782547689	1.998630422	-0.834015039
2.60121912	2.019726544	-0.837118633
2.707175043	1.650890398	-0.835227184
2.512251622	1.663938678	-0.824181606
2.374768767	1.704791302	-0.830470393
2.26313907	1.757856206	-0.846337464
4.263355136	2.599800767	-0.732836498
3.936397503	2.6020774	-0.737661509
3.908426331	2.793714428	-0.797661472
3.811258919	2.9421609	-0.848713863
3.796601377	2.311539031	-0.820368914
3.594817599	2.373038736	-0.836969132
3.346900559	2.388987784	-0.840120638
3.11577254	2.405529583	-0.845023601
3.176625965	1.929058345	-0.829846251
2.974617829	1.960423803	-0.83027193
2.821092641	2.013224715	-0.843712892
2.612007317	2.015288707	-0.838596768
2.714708745	1.64407999	-0.835991318
2.570528107	1.691213956	-0.841593911
2.349445025	1.67571329	-0.819812843
2.257892594	1.74270094	-0.842372027
4.302624162	2.605672065	-0.73820902
3.969964175	2.606799633	-0.742449492
3.930651975	2.79142055	-0.800445903
3.836676899	2.943041731	-0.852359345
3.801992113	2.29886274	-0.820005921
3.597976778	2.359307236	-0.836015457
3.343824642	2.371340498	-0.837518418
3.109174545	2.385246973	-0.84124556
3.195901314	1.927367876	-0.833333004
2.964321954	1.940620082	-0.825732442
2.813781284	1.995006727	-0.839691843
2.620485368	2.009034717	-0.839335865
2.718082499	1.634746865	-0.835481934
2.530488584	1.65376935	-0.826819886
2.368702375	1.678508453	-0.824731716
2.262467418	1.735181969	-0.842088784
4.406408063	2.650081115	-0.754616868
4.010216318	2.615658001	-0.748473077
3.911791603	2.760011802	-0.79487704
3.826890379	2.916929182	-0.84819304
3.808183932	2.286681409	-0.819824425
3.602730474	2.346650562	-0.835443253
3.368704668	2.373485381	-0.841922189
3.134361704	2.389329914	-0.846073059
3.208497595	1.921565633	-0.83507638
2.998021176	1.949568015	-0.833449574
2.81750577	1.984686199	-0.83898225
2.638971889	2.010382817	-0.843277579
2.727236209	1.628879503	-0.836755509
2.567102969	1.666481126	-0.837108957
2.359682717	1.661265803	-0.819812842
2.254812684	1.718350474	-0.837273565
4.79931193	2.866366598	-0.820393573
4.0621693	2.631814893	-0.75665906
3.93074222	2.755358948	-0.797006298
3.824830442	2.896850419	-0.845762719
3.829540122	2.283549259	-0.822909918
3.592605145	2.324388291	-0.831437701
3.367141156	2.356958825	-0.839720274
3.134662877	2.374389554	-0.844184011
3.203473061	1.905227552	-0.832243372
2.975355349	1.921866275	-0.825505466
2.81800915	1.972133192	-0.837326494
2.637399675	1.996427657	-0.840814
2.726398496	1.617051658	-0.834972493
2.538966869	1.637165934	-0.826292206
2.38289836	1.666699448	-0.826098037
2.246311681	1.701003274	-0.832175163
4.819146277	2.858190292	-0.822281193
4.058592911	2.611854742	-0.754496723
3.896272001	2.713407026	-0.78832536
3.832912986	2.884510133	-0.845589091
3.831450893	2.268783231	-0.821820883
3.602196769	2.314947489	-0.832009906
3.384009006	2.353330084	-0.842122342
3.132558547	2.357705766	-0.841665356
3.174848658	1.875041987	-0.823308576
2.992713288	1.920091751	-0.828683109
2.824843908	1.964032962	-0.837563062
2.648159556	1.991822199	-0.842292136
2.701350307	1.591012503	-0.825802558
2.553724611	1.635611624	-0.829458105
2.389580315	1.660478778	-0.826644609
2.277575449	1.713708715	-0.841805543
4.837270458	2.848915109	-0.82387842
4.061591848	2.596198088	-0.75356999
3.899710528	2.698072947	-0.787342656
3.846476693	2.87627601	-0.846630682
3.829916519	2.252033314	-0.820005922
3.612591603	2.305998095	-0.832772846
3.379121584	2.334583291	-0.839119758
3.135862184	2.345156499	-0.840615897
3.18395375	1.867267755	-0.824180293
3.001053961	1.912471354	-0.829364033
2.796479909	1.931612438	-0.827392128
2.660468586	1.988330019	-0.844262966
2.725417762	1.593945828	-0.8316611
2.544895316	1.618967705	-0.824973097
2.393871572	1.652593404	-0.826371321
2.260547184	1.690059477	-0.833591428
4.845133832	2.833561676	-0.823733222
4.109574392	2.609144072	-0.760983676
3.903905029	2.683302095	-0.786523689
3.845006359	2.856826083	-0.844373931
3.823219911	2.232338916	-0.817101982
3.611358733	2.289647513	-0.830865437
3.384652522	2.323096416	-0.838719452
3.135979266	2.330276332	-0.838726848
3.187980759	1.856508389	-0.823744406
3.005261378	1.902213473	-0.828910083
2.785568804	1.911479115	-0.822424915
2.657218804	1.973224808	-0.841306694
2.724441477	1.582177405	-0.829878085
2.539249582	1.60445431	-0.821543385
2.401310349	1.646873414	-0.827191124
2.290357335	1.701417213	-0.842655268
4.859793341	2.822161689	-0.824749659
4.155166776	2.620238766	-0.767933995
3.90723093	2.667974844	-0.785540929
3.857714228	2.847940832	-0.845241893
3.818140265	2.213693542	-0.814560978
3.621688906	2.280649546	-0.831628435
3.393382747	2.313805444	-0.839119758
3.158844973	2.332259141	-0.842924684
3.200420607	1.850627518	-0.825487783
3.002838107	1.887801166	-0.826640339
2.826744232	1.927004925	-0.832832363
2.664039964	1.96563871	-0.84155304
2.725094059	1.571396239	-0.828604454
2.535990135	1.59152904	-0.818905166
2.415891127	1.645998135	-0.830470392
2.305597386	1.701786564	-0.846337463
6.438708172	3.717038793	-0.813696336
4.863286053	2.804273367	-0.823878419
4.179932567	2.617967034	-0.771023064
3.913764712	2.654867339	-0.78521334
3.86484541	2.834927238	-0.844894697
3.835993159	2.208347613	-0.816920487
3.61285593	2.259637687	-0.828004355
3.397220812	2.301185974	-0.838319089
3.142335056	2.3052072	-0.83662793
3.191694608	1.832538756	-0.821783114
3.041659313	1.899212115	-0.835719319
2.83425203	1.919413023	-0.833305445
2.668494724	1.956310113	-0.841060347
2.729063032	1.562547902	-0.828349763
2.558869441	1.594966313	-0.824709285
2.41376012	1.633725906	-0.828010928
2.286833356	1.677122774	-0.837556808
6.451806233	3.69825622	-0.813913893
4.85555237	2.779999459	-0.821119558
4.207240131	2.617133701	-0.774575441
3.921073549	2.642296348	-0.785049548
3.852831753	2.807975795	-0.840381195
3.847872723	2.199496672	-0.818009464
3.619771434	2.248542874	-0.828004355
3.397761741	2.286376689	-0.836717748
3.143071547	2.29094866	-0.834948807
3.210019822	1.829988539	-0.825051953
3.044988552	1.888331652	-0.835038394
2.837708807	1.909081617	-0.832595851
2.62826404	1.914447239	-0.826525336
2.73552538	1.555123722	-0.828859204
2.571131925	1.591677692	-0.827083695
2.417164409	1.625239334	-0.827464411
2.303594314	1.678570907	-0.841805542
9.223717608	5.257935785	-0.770170459
6.46657778	3.680411808	-0.814349125
4.857177823	2.761177935	-0.819957983
4.22533591	2.610445305	-0.776428849
3.943097312	2.639583305	-0.787834036
3.854249572	2.790943866	-0.838818837
3.869141701	2.195932877	-0.821094898
3.633336419	2.241550306	-0.829530293
3.39661486	2.270496961	-0.834715987
3.159587928	2.288176756	-0.83746752
3.194385414	1.808112912	-0.819603909
3.064864727	1.887663267	-0.838896904
2.836282001	1.895507771	-0.83046707
2.663960284	1.927967188	-0.835886843
2.748704691	1.55147724	-0.831406407
2.581755008	1.587318455	-0.828930429
2.422938995	1.618350205	-0.827737696
2.307179681	1.670370803	-0.841239003
9.281469544	5.253194578	-0.773643265
6.456202631	3.648329017	-0.811629187
4.865626127	2.746263344	-0.819957983
4.26027238	2.614004396	-0.781371324
3.975820546	2.643861236	-0.792747726
3.83881137	2.761851634	-0.833610941
3.87072018	2.181155511	-0.820005921
3.637685084	2.228854296	-0.82895803
3.401116072	2.258439615	-0.834115471
3.17691033	2.285896085	-0.840196102
3.202470084	1.799738539	-0.820257711
3.027439841	1.851825878	-0.827094288
2.831560676	1.879811092	-0.827392126
2.68717404	1.932233009	-0.841306695
2.745015881	1.538309592	-0.828859203
2.570147912	1.569336812	-0.823653986
2.394227696	1.588572339	-0.816260289
2.302172351	1.656004317	-0.837556808
9.32536582	5.240330188	-0.775958487
6.464764385	3.627045371	-0.811302792
4.868849515	2.728420937	-0.819086742
4.423512612	2.695519464	-0.809790461
3.986382504	2.633282406	-0.793239106
3.856880689	2.756933475	-0.835694122
3.877393446	2.169270123	-0.82000592
3.660439177	2.22737899	-0.832582111
3.433382521	2.264718372	-0.840320791
3.183908421	2.276138699	-0.840196102
3.259113239	1.818437028	-0.833333004
3.034771586	1.843540381	-0.827548236
2.853537174	1.881813344	-0.83212277
2.669431218	1.907078059	-0.833916016
2.764087938	1.53787333	-0.833189422
2.580723966	1.564945378	-0.825500719
2.417563116	1.593394884	-0.822545537
2.297098645	1.641684164	-0.833874669
9.414562848	5.252514276	-0.782035897
6.466308797	3.601873566	-0.810105991
4.874603738	2.712027616	-0.818651151
4.513753123	2.731553583	-0.824772268
4.018361334	2.636734801	-0.797989059
3.874955909	2.75193053	-0.837777246
3.867696671	2.148291658	-0.816557494
3.666415268	2.215630711	-0.832391376
3.392782727	2.223030226	-0.828710878
3.197253385	2.270889178	-0.841875224
3.250163398	1.800390048	-0.829628337
3.032074235	1.829190352	-0.825278492
2.822722748	1.849091157	-0.82147881
2.669737081	1.894952526	-0.832191533
2.775564699	1.533126522	-0.835227185
2.600386364	1.565977362	-0.830249537
2.412782727	1.579647634	-0.819266271
2.298214439	1.631852899	-0.832458403
9.44721013	5.232788147	-0.783410559
6.468629772	3.577207653	-0.809018027
4.886365422	2.698973073	-0.819231939
4.531427368	2.723290961	-0.826471239
4.025605401	2.623855572	-0.797825266
3.882575938	2.739461599	-0.837603677
3.880297535	2.139739533	-0.817827968
3.66646188	2.200330717	-0.830865437
3.402050531	2.214214319	-0.829311396
3.203406388	2.260505871	-0.841665355
3.259092343	1.79229139	-0.830499997
3.041013606	1.821881646	-0.82618639
2.824310315	1.837772798	-0.820296134
2.680290341	1.890104316	-0.833669669
2.787886413	1.528788555	-0.837519641
2.614284728	1.563437944	-0.833151628
2.433745769	1.582726445	-0.824731716
2.309479616	1.629217068	-0.834724393
9.483320481	5.214833198	-0.78507466
6.473474443	3.553996535	-0.808256458
4.898960413	2.686347876	-0.819957982
4.538064031	2.708363347	-0.826162308
4.041917216	2.616854122	-0.799463143
3.894187522	2.729798454	-0.83829807
3.878218042	2.123102818	-0.816013007
3.668135699	2.18605663	-0.829721028
3.397308349	2.196319472	-0.826508963
3.197517274	2.241686929	-0.838307052
3.22517105	1.760771509	-0.820475626
3.054121473	1.817024835	-0.82822916
2.83156743	1.830154136	-0.820769217
2.682107861	1.879091758	-0.83243788
2.7636867	1.504508122	-0.828859204
2.598335211	1.543096861	-0.826556017
2.435357988	1.573164567	-0.823638627
2.323891362	1.628729207	-0.838123347
9.508028984	5.190493597	-0.785798141
6.478237376	3.530789428	-0.807494889
4.894143966	2.664209735	-0.81777991
4.539552051	2.69039828	-0.824926703
4.076477807	2.621516148	-0.804704476
3.909817589	2.722903682	-0.839860428
3.885577326	2.111664061	-0.816194502
3.666377242	2.169793172	-0.827813619
3.412274769	2.191180293	-0.828510666
3.190740472	2.2223669	-0.83473888
3.221119328	1.745753124	-0.818078448
3.055489122	1.80516947	-0.827094287
2.83716893	1.821458442	-0.820769217
2.685473845	1.869193391	-0.831698784
2.779348914	1.501998935	-0.83217054
2.599733722	1.533158085	-0.825500717
2.445840281	1.569321897	-0.825551519
2.338321858	1.628168214	-0.841522244
9.523908651	5.161299042	-0.785798142
6.492536377	3.512790056	-0.807930063
4.875311161	2.634600229	-0.813278627
4.537567031	2.670445043	-0.823073297
4.106117174	2.622804358	-0.80896305
3.924631977	2.715378369	-0.841249158
3.908481296	2.108604941	-0.819642929
3.657783086	2.14958221	-0.824380273
3.433024002	2.18965796	-0.831913615
3.200759721	2.214792876	-0.835578471
3.216146375	1.730313753	-0.815463412
3.067733179	1.799729339	-0.828910084
2.846839723	1.815357601	-0.821951891
2.682427014	1.854882086	-0.828988915
2.752414793	1.476550841	-0.822745913
2.588610705	1.515913787	-0.820488145
2.487958763	1.585592116	-0.838121962
2.358291928	1.631353195	-0.846903947
9.530036329	5.12685804	-0.7850023
6.50853749	3.495676839	-0.808582853
4.883371296	2.61963076	-0.813278628
4.550856784	2.659502352	-0.823999972
4.142465866	2.628163114	-0.814531911
3.924016583	2.697188666	-0.839339603
3.921867381	2.100317971	-0.821094899
3.669447835	2.141318633	-0.825524741
3.442208483	2.180688404	-0.832514131
3.213985166	2.209393539	-0.837257593
3.223161608	1.721358228	-0.815899243
3.053043563	1.778543782	-0.823462696
2.840904308	1.799336552	-0.818640436
2.702484307	1.856521879	-0.833423323
2.797047984	1.489462072	-0.834717743
2.606590713	1.515722826	-0.824709286
2.477368573	1.568176306	-0.832929801
2.358543273	1.620851217	-0.84520444
9.522846229	5.085380547	-0.783121178
6.513968358	3.472886349	-0.807930063
5.927650659	3.444307378	-0.815426893
4.88789167	2.602776297	-0.812697839
4.563267028	2.648007464	-0.824772267
4.200586207	2.646997564	-0.824359347
3.920073535	2.676807015	-0.836735655
3.916135907	2.081813509	-0.818553951
3.680246656	2.132511675	-0.826478416
3.466296959	2.181075139	-0.836717748
3.206215175	2.189597605	-0.833479553
3.248260199	1.721975384	-0.820911456
3.059328814	1.769656434	-0.823689671
2.879308047	1.811307047	-0.82810172
2.704965082	1.846036715	-0.832437879
2.782796086	1.470932026	-0.829113895
2.627935035	1.517365147	-0.829985727
2.494383395	1.568248394	-0.837028871
2.347663731	1.602792614	-0.839539554
9.512847848	5.042594322	-0.781023035
6.519320833	3.450095565	-0.807277273
5.942490213	3.4285867	-0.816017455
4.865238799	2.571585913	-0.807615769
4.561096793	2.628075889	-0.82291886
4.22206661	2.642471783	-0.826980042
3.923377649	2.661450588	-0.835694123
3.88945439	2.052349831	-0.811657038
3.694429596	2.125616817	-0.82819509
3.438076141	2.148622355	-0.828310514
3.206444796	2.175359502	-0.83180043
3.27339267	1.722454662	-0.825923669
3.0537649	1.753956484	-0.820739002
2.882379549	1.800920453	-0.827392127
2.725055624	1.847518915	-0.836872288
2.806990873	1.472721	-0.834972493
2.635088194	1.510734906	-0.830777216
2.464913946	1.539189549	-0.825551518
2.363682025	1.603119109	-0.843504993
9.523860158	5.01106354	-0.780661235
6.514034405	3.421757437	-0.805318904
5.950396336	3.408858433	-0.815663106
4.892380411	2.566760025	-0.81081022
4.562277552	2.610145337	-0.821683197
4.230153834	2.62950625	-0.826980043
3.931524245	2.649401323	-0.835694122
3.892248353	2.038582383	-0.810931055
3.677067617	2.10063813	-0.822854335
3.441322259	2.135997442	-0.827509845
3.202563549	2.158408263	-0.829071848
3.280392002	1.713307484	-0.826359499
3.032059572	1.729140687	-0.813475818
2.893670264	1.795655104	-0.829047884
2.744376495	1.848353737	-0.841060348
2.77461538	1.444896523	-0.824019485
2.648931837	1.507892393	-0.833679249
2.465537168	1.529085109	-0.824185143
2.356658758	1.587821606	-0.839256314
9.552449932	4.98874686	-0.781746516
8.577069962	4.885276739	-0.810657613
6.517449594	3.398080085	-0.804448556
5.966005076	3.393532544	-0.816371804
4.892334005	2.547625617	-0.809503388
4.562532545	2.591744132	-0.820293158
4.233164877	2.613406491	-0.825997282
3.942089082	2.638970743	-0.836214889
3.914189993	2.034796249	-0.814197987
3.663002508	2.077723633	-0.818276578
3.445357056	2.123887277	-0.826909328
3.205108114	2.145853038	-0.828022389
3.289098682	1.705032	-0.827231158
3.105995856	1.758699199	-0.831860752
2.895856941	1.784729939	-0.828101721
2.702508615	1.808128276	-0.826525337
2.773021893	1.433269283	-0.822236472
2.672859154	1.510674479	-0.839747179
2.471854745	1.522522733	-0.824731716
2.363910019	1.582184269	-0.840106037
9.570366476	4.960793667	-0.781963536
8.568593342	4.845693301	-0.808447591
6.519015418	3.373500021	-0.803360591
5.957366432	3.364470386	-0.8137734
4.886063729	2.52533567	-0.807180176
4.567880424	2.576278299	-0.819829791
4.242003585	2.600922832	-0.826161076
3.955907101	2.630681462	-0.837430049
3.916044667	2.020523444	-0.813290506
3.680478995	2.072737949	-0.820756192
3.45018553	2.112283769	-0.826508963
3.210048265	2.13492698	-0.827602594
3.28737148	1.691361143	-0.825487782
3.077419074	1.730071493	-0.822781773
2.91955038	1.786996363	-0.833305444
2.716114955	1.805193202	-0.828988916
2.786010109	1.429168826	-0.824783676
2.668228208	1.497274817	-0.836845089
2.473232008	1.5129241	-0.823638628
2.361565343	1.570145549	-0.837556808
9.587315336	4.932321371	-0.782108257
8.50259994	4.774004162	-0.800835423
6.503691486	3.34031369	-0.800205421
5.970258684	3.347634545	-0.81412769
4.915796853	2.521623223	-0.810810219
4.566280565	2.556942197	-0.818130821
4.253333517	2.589948386	-0.826816249
3.967246248	2.620703756	-0.838124443
3.909970776	2.002224617	-0.810749559
3.679109463	2.05712496	-0.819039576
3.456649784	2.101689011	-0.826508964
3.223109147	2.129380172	-0.829281717
3.291675825	1.680823856	-0.825269867
3.073357926	1.715400771	-0.820285054
2.930000833	1.781059046	-0.834724632
2.723257957	1.797919781	-0.829481609
2.776593435	1.413594984	-0.820708149
2.646687896	1.474528979	-0.828666617
2.495126356	1.515817632	-0.829377304
2.379975658	1.571878156	-0.842372026
9.603290795	4.903338545	-0.782180617
8.506760045	4.742072489	-0.799853198
6.526307874	3.326664974	-0.801728617
5.97269226	3.324955273	-0.813064701
4.939380972	2.514609562	-0.813423883
4.573240198	2.542440948	-0.817976385
4.263791556	2.578418663	-0.827307629
3.96868074	2.604197723	-0.836735655
3.94064176	2.0026945	-0.815831508
3.687978121	2.04725734	-0.819611782
3.467274906	2.093606242	-0.827509843
3.227991994	2.118408909	-0.828861922
3.290723074	1.66762895	-0.823744406
3.083717295	1.708795945	-0.821646899
2.922142155	1.764027269	-0.830940151
2.693101513	1.76617047	-0.818641908
2.796453158	1.412919463	-0.825293118
2.658795835	1.470603851	-0.831041028
2.475055663	1.493247932	-0.821179162
2.378371861	1.560360445	-0.840106037
9.612060592	4.870697111	-0.781674156
8.503827955	4.706300092	-0.798216156
6.531160946	3.303934574	-0.801075827
5.968959646	3.298930244	-0.811174995
4.952371016	2.502121007	-0.814295065
4.557663821	2.515508277	-0.813806205
4.275910653	2.5678648	-0.828126539
3.968401215	2.586632202	-0.834999728
3.9511576	1.992809772	-0.81673899
3.687363936	2.032142801	-0.818085844
3.481244318	2.087493761	-0.829311395
3.236933166	2.110097484	-0.829491643
3.287104841	1.653140409	-0.821565201
3.089798729	1.699796633	-0.821873875
2.915040198	1.747560182	-0.827392127
2.724493729	1.77482814	-0.826525337
2.812012313	1.409968019	-0.828604453
2.656531185	1.458725739	-0.828930428
2.497778927	1.496524107	-0.827191125
2.381540903	1.552009083	-0.839539555
9.600226557	4.827741851	-0.779503652
8.495516462	4.667710752	-0.796088032
6.545708415	3.286111701	-0.80161978
5.967734996	3.274392664	-0.809639579
4.94852614	2.481150627	-0.812407445
4.582688962	2.511008848	-0.816895216
4.272754037	2.548165674	-0.825997281
3.967224966	2.568557705	-0.833090175
3.93087147	1.967473773	-0.811294048
3.679802257	2.013281945	-0.815034026
3.493524772	2.080312678	-0.830712581
3.253240002	2.10653373	-0.832010299
3.298273845	1.646098657	-0.823090662
3.091580061	1.688442047	-0.820965977
2.937085372	1.748549261	-0.832122769
2.777933659	1.797525593	-0.841060348
2.832774267	1.40951915	-0.83344417
2.64574951	1.442258606	-0.824181606
2.518891889	1.498691138	-0.83265657
2.372604664	1.535835822	-0.834724394
9.596252056	4.788913772	-0.777984271
8.501922349	4.637329415	-0.795351378
6.553979579	3.265127788	-0.801402222
5.96467241	3.248943576	-0.807867892
4.957886609	2.466838477	-0.812697839
4.570409021	2.486079282	-0.813342838
4.272063861	2.530018181	-0.824359348
3.965146753	2.549981859	-0.831006993
3.955384484	1.964591219	-0.815105525
3.683373791	2.000577251	-0.814461763
3.501577339	2.070582186	-0.831112886
3.248174968	2.089138629	-0.829071849
3.309430491	1.639003877	-0.824616123
3.107019454	1.684519507	-0.82368967
2.960836893	1.750408438	-0.837326494
2.763052796	1.775894145	-0.834901459
2.848357322	1.406387252	-0.836755507
2.665431773	1.442398096	-0.828930429
2.549151752	1.506125173	-0.841127942
2.393438983	1.538923108	-0.840389278
9.568890907	4.738647474	-0.774583825
8.467029658	4.584649448	-0.790767662
6.550599526	3.238396949	-0.799770247
5.955395011	3.220238114	-0.805269486
4.951236617	2.444607872	-0.810374628
4.586708109	2.476740098	-0.814887372
4.275553889	2.514399345	-0.823540438
3.976270953	2.539925688	-0.831701386
3.961393166	1.952446961	-0.815105525
3.692086375	1.990665094	-0.815034026
3.488481227	2.048419342	-0.826508963
3.27846332	2.094428141	-0.835158676
3.284662506	1.614207489	-0.817206789
3.130182193	1.684671963	-0.828456134
2.969544672	1.743284098	-0.838272657
2.779924718	1.774710092	-0.838350422
2.846579961	1.394663827	-0.834972493
2.655398981	1.426453922	-0.824445474
2.556249468	1.499757728	-0.841947744
2.371476155	1.514538161	-0.831042197
9.549368315	4.692553172	-0.771834502
8.497734779	4.567616601	-0.792322866
6.54354718	3.209966565	-0.797703099
5.960872182	3.199603797	-0.804678982
5.501238934	3.216399516	-0.819615606
4.934724021	2.417653147	-0.806454134
4.601251752	2.466390689	-0.816122978
4.267913833	2.492316013	-0.820592212
3.975729068	2.522438765	-0.829965402
3.96206395	1.937692153	-0.814016489
3.704234597	1.98257106	-0.816369171
3.498981401	2.040174883	-0.827509845
3.285698955	2.084883986	-0.835368601
3.321179349	1.6195223	-0.825051952
3.124168956	1.669094805	-0.825505465
2.966484814	1.729272185	-0.835907306
2.7689865	1.755792969	-0.833423323
2.856933132	1.388883589	-0.836755507
2.676785236	1.427377672	-0.829721916
2.538397131	1.478833972	-0.834569463
2.375301589	1.506741786	-0.830758955
9.53144725	4.647497572	-0.769229898
8.481812187	4.525572881	-0.789539925
6.556939534	3.191616421	-0.798138272
5.971536672	3.181767981	-0.80479706
5.505934413	3.196519021	-0.818850223
4.942117958	2.402502186	-0.806454133
4.608796661	2.452262756	-0.816122978
4.276393501	2.479705285	-0.820755948
3.98928128	2.513904727	-0.831180562
3.961797088	1.922522392	-0.812746017
3.726770509	1.979947955	-0.819993252
3.484874398	2.017648656	-0.822705711
3.286289834	2.071144646	-0.833899348
3.312075794	1.602524244	-0.8215652
3.118950149	1.654026724	-0.822781772
2.958321601	1.712375142	-0.832122769
2.776820373	1.748838991	-0.834162362
2.827212466	1.363727194	-0.826821439
2.693939569	1.425927413	-0.833679249
2.562073242	1.482117891	-0.840854713
2.388027375	1.504559708	-0.833591428
9.516031803	4.603899319	-0.766842315
8.493894534	4.498596917	-0.789376191
6.552378323	3.164567952	-0.796397519
5.981270182	3.163432622	-0.80479706
5.538056394	3.192490962	-0.822166982
4.946791844	2.386039336	-0.806018542
4.61979319	2.439957242	-0.816740781
4.30193418	2.476910707	-0.824195611
3.99780976	2.502176383	-0.831354189
3.955272035	1.904386236	-0.81020507
3.727617515	1.96575767	-0.818848842
3.491047999	2.006947729	-0.82270571
3.276882368	2.051196191	-0.829911382
3.327534649	1.59742399	-0.824180293
3.135213355	1.65034747	-0.82573244
2.959349178	1.700870152	-0.830940151
2.786280943	1.742881494	-0.835394151
2.805214934	1.342523532	-0.819179826
2.698301566	1.417655802	-0.833679249
2.578285883	1.480958246	-0.844680496
2.384502031	1.492138865	-0.830758955
9.498641608	4.559576414	-0.764310071
8.501481544	4.469270338	-0.788803272
7.573186381	4.337753193	-0.799026053
6.548609446	3.138006947	-0.794765544
5.989188661	3.144144478	-0.804560846
5.523722297	3.161689674	-0.818595114
4.951411671	2.369570188	-0.805582951
4.623756656	2.423937572	-0.816122977
4.31465153	2.466638586	-0.825178314
4.003795012	2.488859719	-0.831006993
3.95044768	1.887155959	-0.808027114
3.738849115	1.957043789	-0.819993253
3.507399691	2.002056092	-0.825107777
3.287311544	2.043714185	-0.83096084
3.339469008	1.590565051	-0.82592367
3.151483262	1.646583979	-0.828683109
2.940080897	1.677817319	-0.824080671
2.777619762	1.725630478	-0.83120609
2.833779821	1.345524597	-0.826311999
2.71803299	1.417398909	-0.83842807
2.538530937	1.447783601	-0.830197106
2.398843249	1.490891161	-0.83415791
9.51618768	4.532128909	-0.764599452
8.499247911	4.434867997	-0.787329904
7.594249521	4.318929422	-0.79984663
6.559103561	3.118328257	-0.794874381
5.999687113	3.126213832	-0.804678982
5.531672011	3.143747958	-0.818339948
4.956870562	2.353519587	-0.805292499
4.635553879	2.412020789	-0.816895216
4.322198789	2.453389788	-0.825178314
4.000517934	2.469838905	-0.828750241
3.957107767	1.875448419	-0.808208612
3.738737983	1.942395842	-0.818658049
3.523754022	1.997083351	-0.827509845
3.30105329	2.038242296	-0.832849888
3.339920944	1.578227362	-0.824834038
3.141822552	1.629285745	-0.824824543
2.936761144	1.663999483	-0.821715322
2.79032419	1.721680966	-0.833423322
2.818648584	1.327758322	-0.820708149
2.70180948	1.398412359	-0.832096327
2.513664029	1.423399044	-0.820632647
2.399325395	1.481005903	-0.832741645
9.502091159	4.489703595	-0.762356588
8.488033821	4.395938264	-0.785038046
7.612666959	4.298548046	-0.800393681
6.571337013	3.099462705	-0.795200776
6.01189627	3.109160739	-0.805033273
5.535244153	3.123350496	-0.81744701
4.964067832	2.338300953	-0.805292499
4.620107778	2.386000749	-0.812879472
4.32111126	2.435274364	-0.823540437
3.999681058	2.452406214	-0.827014258
3.976191674	1.869575926	-0.810931054
3.751659329	1.934515562	-0.820183987
3.531572024	1.987224191	-0.827910151
3.292288303	2.018905187	-0.829071849
3.307632343	1.550574369	-0.815681327
3.122560042	1.607159806	-0.818469257
2.95032048	1.659745761	-0.824080672
2.803030499	1.717669822	-0.835640498
2.835850049	1.325245695	-0.824528928
2.708661087	1.391438923	-0.832887759
2.545689507	1.431237428	-0.829650589
2.410399006	1.47764783	-0.835007635
9.493243976	4.449947272	-0.760547826
8.481093442	4.359397652	-0.783155493
7.61713241	4.270302411	-0.79948191
6.577213588	3.077602259	-0.794765544
6.024057082	3.092062272	-0.805387622
5.554318535	3.111686282	-0.818850223
4.321254441	2.631992102	-0.700742129
4.986456493	2.330181346	-0.807760966
4.625648036	2.370913807	-0.812570601
4.333727816	2.424896302	-0.824523141
4.009709154	2.441660454	-0.82753508
3.991712002	1.861941157	-0.812927512
3.762819754	1.925679742	-0.821328454
3.518834778	1.965867265	-0.823506379
3.299301606	2.009303665	-0.829281716
3.342462201	1.554411933	-0.823090661
3.137016384	1.602445732	-0.820965977
2.947764151	1.646422322	-0.821951891
