x	y	z
11.25238169	-11.93202457	2.260934138
12.09333236	-11.9182064	2.175684709
10.37767018	-11.84227055	1.741708796
11.22901684	-11.91474531	1.647737359
10.44493186	-11.92952066	1.169672236
10.39652231	-11.88176111	0.586925101
10.36265534	-11.91495053	4.826539428
11.20938169	-11.94300428	4.813272702
12.11321049	-11.96566035	4.820945975
13.11246041	-12.01657941	4.85296868
10.38742622	-11.93543698	4.174591485
11.19046199	-11.92284614	4.137028987
12.04341909	-11.91458946	4.111947654
13.05147791	-11.98754422	4.120601242
10.37791853	-11.91737087	3.543035428
11.18766879	-11.92529156	3.495044043
12.08106122	-11.96059418	3.461207977
13.02532023	-11.97987485	3.429330846
10.35690817	-11.89324305	2.926911394
11.17754232	-11.91783205	2.867532606
12.04434702	-11.93049178	2.808368728
10.3680342	-11.90476077	2.332019548
11.17033354	-11.91806332	2.251784349
12.02219826	-11.92102986	2.169456739
10.33410939	-11.86580767	1.740499418
11.16180179	-11.91646215	1.64323113
10.36769431	-11.91486415	1.165110931
10.33182351	-11.88117557	0.585327696
10.33355651	-11.95536887	4.830047042
11.12098758	-11.92191347	4.790999638
11.98636207	-11.9132342	4.784984826
13.00177129	-11.9887381	4.825592504
10.28877188	-11.89558029	4.149590913
11.15316912	-11.95641297	4.136783418
11.98545792	-11.93022891	4.104635831
13.0303764	-12.04207277	4.125583715
10.3093804	-11.91226235	3.532096784
11.17503798	-11.98530692	3.502568772
12.03944973	-11.99276112	3.459811558
12.96040383	-11.99377352	3.421911496
10.30492937	-11.90711898	2.92253212
11.11473445	-11.92396932	2.860791083
11.99161602	-11.95136894	2.80460982
10.2544196	-11.84750125	2.314629535
11.11616129	-11.93343143	2.248233819
11.96450338	-11.93684049	2.165643711
10.26708531	-11.86213465	1.735332172
11.0967163	-11.92006353	1.639025426
10.27172848	-11.87796998	1.158416138
10.28094915	-11.89618367	0.584510398
10.26130958	-11.94566596	4.8133854
11.11566897	-11.98974805	4.804532753
12.03820267	-12.03839937	4.820400952
12.90410751	-11.97214154	4.802954186
10.24088346	-11.91389114	4.144998971
11.05645659	-11.92587864	4.114463623
11.87876306	-11.89680086	4.080577011
12.84571885	-11.9446972	4.078702039
10.22506463	-11.88835127	3.515688817
11.08769823	-11.965022	3.486683181
11.91954637	-11.94640064	3.435870995
12.90486594	-12.01608549	3.416965028
10.23821721	-11.90364291	2.913955727
11.02588935	-11.90165474	2.847308274
11.93608506	-11.96924111	2.800197171
12.83719447	-11.97107355	2.737708176
10.21221706	-11.87215578	2.313314416
11.08151648	-11.96965934	2.248643422
11.85572211	-11.90111173	2.152552623
10.21119917	-11.87097203	1.732033889
10.99725276	-11.88613027	1.629712796
10.21638913	-11.88749316	1.156282649
10.21575533	-11.89431375	0.5828758
10.19418761	-11.94145152	4.79906264
11.03202314	-11.97299177	4.784232842
11.83029005	-11.90329824	4.751748322
12.83910807	-11.98534155	4.792425142
10.16848556	-11.90334769	4.13045782
10.99748094	-11.93550357	4.106124219
11.89628525	-11.98768142	4.099210854
12.80901249	-11.98405085	4.078702039
10.17079146	-11.89889654	3.509563129
11.01185119	-11.95654173	3.474350978
11.88697957	-11.98708776	3.437067858
12.8636418	-12.05159249	3.415823717
10.21442607	-11.94994586	2.917605202
10.93861971	-11.88035683	2.834170934
11.86250013	-11.96866734	2.791535424
12.76149819	-11.97389338	2.729386414
10.14039144	-11.86207377	2.305276852
10.95351839	-11.90445832	2.230070854
11.80170753	-11.91980729	2.149375218
10.14308497	-11.86522403	1.726646702
10.95265315	-11.91102448	1.628511166
10.17339316	-11.91119759	1.155547008
10.1467773	-11.88759548	0.58101834
10.10429754	-11.9099554	4.773924263
10.94858518	-11.95583593	4.763933405
11.84713271	-11.99361426	4.773270367
12.76852396	-11.99297207	4.779789911
10.11314596	-11.91237564	4.122804586
10.9025403	-11.90555489	4.084295088
11.85603958	-12.02066253	4.098031161
12.78282329	-12.03330648	4.082099028
10.1418192	-11.93896765	3.512188356
10.940783	-11.95275931	3.463481716
11.82744861	-12.0004693	3.430484167
12.79803228	-12.06406538	3.408213874
10.1140615	-11.90629265	2.899357597
10.87419342	-11.88334146	2.826911087
11.82710894	-12.00641033	2.791862295
12.64926386	-11.94176963	2.713205183
10.10843508	-11.8984053	2.306299905
10.91159608	-11.93215862	2.228978419
11.75673382	-11.94747412	2.147849817
10.07381489	-11.85765558	1.721039693
10.8717586	-11.8960962	1.621902203
10.10582477	-11.90585798	1.152015672
10.07922975	-11.88209039	0.579235148
10.03442311	-11.9014181	4.758139999
10.89958436	-11.97588775	4.758576617
11.79679952	-12.01617268	4.76782155
12.7141409	-12.01552282	4.773209081
10.03539972	-11.89457014	4.105967464
10.8594385	-11.93177769	4.081842239
11.75856106	-11.9952168	4.077038881
12.64047947	-11.9726664	4.048353263
10.0497518	-11.90441289	3.492936295
10.8751059	-11.95444056	3.454284955
11.75697712	-12.00239821	3.420708528
12.64129254	-11.98977204	3.376252909
10.0311863	-11.8824216	2.886036912
10.83967244	-11.91883309	2.827429648
11.70256637	-11.95310989	2.771106765
12.62331327	-11.99072822	2.715516652
10.01508494	-11.86208794	2.293293932
10.81963733	-11.90473185	2.217643762
11.69089565	-11.95370429	2.142511862
10.00212242	-11.84673508	1.714992802
10.78838259	-11.87783872	1.614892697
9.983084377	-11.83465775	1.142157421
10.78474412	-11.8771636	1.029581452
10.04530584	-11.91601319	0.579383743
9.975137247	-11.90502497	4.74732438
10.80100483	-11.9409641	4.731510386
11.71553008	-12.00685647	4.749841449
12.6939967	-12.07042694	4.779526695
9.983950969	-11.90752072	4.099844876
10.79481701	-11.93412244	4.071295554
11.64032774	-11.9477088	4.048734303
12.52260126	-11.93411436	4.02230794
10.00252037	-11.92248103	3.489217202
10.81476936	-11.96163507	3.446759991
11.64832624	-11.96468958	3.399760594
12.5888238	-12.01358793	3.372067472
9.968774998	-11.88225805	2.878555338
10.70993088	-11.84900483	2.803056595
11.61630337	-11.93804802	2.759339855
12.49860976	-11.94543043	2.696561659
9.965291908	-11.87684376	2.290225009
10.76380566	-11.91655077	2.21368339
11.60646371	-11.94043855	2.133741874
9.968286003	-11.88041138	1.715432565
10.71855636	-11.87395225	1.609885907
9.940321929	-11.85758719	1.141421662
10.72752844	-11.88722851	1.027596022
9.93169096	-11.85485382	0.574925792
9.871252715	-11.85473311	4.715170775
10.74187018	-11.9490722	4.721642244
11.54601047	-11.90597895	4.695899724
12.57116469	-12.02728379	4.747148977
9.934374202	-11.9224951	4.09448761
10.75944849	-11.9686261	4.071786218
11.56778973	-11.94636438	4.036233065
12.4697589	-11.95697227	4.01709897
9.95339869	-11.93812312	3.484841745
10.70220195	-11.91037991	3.422513536
11.59384789	-11.98206045	3.394573322
12.49667271	-11.99911667	3.357228538
9.905200151	-11.8803141	2.870708982
10.67089517	-11.87887566	2.802365181
11.54601729	-11.93888108	2.751331852
12.42700499	-11.95016144	2.689010465
9.905366981	-11.87924867	2.284817916
10.69609309	-11.91487051	2.207264924
11.57735731	-11.98383828	2.135139961
9.91460358	-11.89032699	1.712464135
10.68407044	-11.90900248	1.610186314
9.908365509	-11.89339137	1.141936646
10.68234717	-11.91042657	1.026763465
9.862025163	-11.84533319	0.572994006
9.829958693	-11.87906731	4.712832364
10.62333874	-11.89039167	4.685554251
11.49273613	-11.92402655	4.689089058
12.45497315	-11.98952222	4.717140186
9.83238151	-11.87397584	4.067446175
10.65421279	-11.92494761	4.04578715
11.49402148	-11.94328622	4.023260231
12.39656709	-11.96000615	4.005322046
9.899293993	-11.94756452	3.478716055
10.64346371	-11.91835848	3.415406992
11.45854565	-11.91516088	3.365645279
12.42520401	-12.00397544	3.34790661
9.825421356	-11.85840699	2.858118097
10.6134106	-11.88804612	2.796833869
11.40952142	-11.87040209	2.727471159
12.4059059	-12.0033458	2.692400778
9.835420792	-11.86921015	2.277072886
10.60804722	-11.88997219	2.196613096
11.43955113	-11.91412561	2.116456526
9.854613489	-11.89237111	1.708396237
10.5859029	-11.87265883	1.600873684
11.38583227	-11.86688019	1.500724868
9.854022492	-11.90222481	1.139876828
10.5959538	-11.88727138	1.021960164
9.814807855	-11.86244499	0.572362494
9.772207977	-11.8833172	4.702601822
10.59126927	-11.92794935	4.68752788
11.4434529	-11.94602811	4.683912989
12.35160474	-11.96324287	4.691869723
9.830311874	-11.94589621	4.081732216
10.56930176	-11.90320943	4.027391727
11.43247265	-11.95250954	4.014532683
12.36680468	-12.00476614	4.007587021
9.806770451	-11.9100843	3.459026496
10.60230546	-11.94583596	3.413943818
11.39553097	-11.92263269	3.35786449
12.36579075	-12.02014193	3.341818829
9.767744852	-11.86268885	2.851913968
10.56904474	-11.91171061	2.794759627
11.37645728	-11.90891683	2.72828822
12.23946308	-11.91522329	2.664199199
9.757455091	-11.84892738	2.267427901
10.47753611	-11.81646803	2.177084471
11.36117413	-11.90539284	2.108703393
9.792808505	-11.89185855	1.703998606
10.52501351	-11.87752737	1.59716866
11.34730981	-11.89959391	1.500452237
9.777541777	-11.88388248	1.135241971
10.54818422	-11.907024	1.020871307
9.753616296	-11.86239652	0.570913684
9.733284596	-11.9102799	4.701432619
10.52161353	-11.92297892	4.672867044
11.382202	-11.95529624	4.673833128
12.32658929	-12.01252695	4.696344838
9.734242282	-11.90339388	4.05698675
10.50001855	-11.89850774	4.014882856
11.36695844	-11.95724204	4.004390356
12.26511333	-11.97935763	3.98652417
9.757207951	-11.92425615	3.45443217
10.56107756	-11.97317332	3.412480642
11.3737465	-11.97316771	3.362253538
12.29446423	-12.02438751	3.332496901
9.715738821	-11.87357693	2.847352068
10.53635851	-11.94851205	2.795796747
11.34054642	-11.94447904	2.728451774
12.17108664	-11.92160422	2.657264318
9.736720275	-11.8979473	2.271081427
10.44188887	-11.84929961	2.177221083
11.35872393	-11.97617655	2.11505844
9.698366815	-11.85108008	1.693883818
10.44841137	-11.86421324	1.591060376
11.29019739	-11.91266583	1.497726038
9.712630022	-11.87908056	1.131931291
10.45093514	-11.87042029	1.014979268
9.705796149	-11.87833558	0.57024498
9.631587415	-11.8599102	4.669863614
10.43943694	-11.90326762	4.652567136
11.34017907	-11.98456867	4.671653506
12.24490271	-12.00638538	4.679234492
9.655601001	-11.88142617	4.039384306
10.45195931	-11.91754595	4.010467822
11.32020968	-11.98146387	4.000852225
12.17967358	-11.96914117	3.97067029
9.684873535	-11.91022509	3.441743296
10.40181431	-11.8657995	3.372766546
11.26632684	-11.93319146	3.341305604
12.15885151	-11.96495818	3.305672664
9.665619082	-11.88654606	2.843337576
10.41785681	-11.88744752	2.774016734
11.22598414	-11.89669876	2.709657475
12.09997129	-11.92490479	2.649713124
9.646493998	-11.8617575	2.25851367
10.39830798	-11.87308187	2.17571881
11.26885994	-11.95466944	2.105144519
9.658827135	-11.87692257	1.693334143
10.37919827	-11.85877752	1.586053585
11.23925716	-11.93202444	1.495817617
9.655385752	-11.88328049	1.129503593
10.39738244	-11.8829004	1.013314034
9.625213414	-11.8537522	0.567644489
9.645606115	-11.95191653	4.694417387
10.38332708	-11.91281797	4.643827186
11.30863127	-12.02491139	4.673833129
12.1358991	-11.97275416	4.651595102
9.60695459	-11.89594901	4.03428215
10.39687525	-11.9283626	4.003354843
11.24814179	-11.97859091	3.988350985
12.0798677	-11.94413227	3.950060671
9.604744649	-11.88599557	3.426210562
10.357011	-11.88807111	3.37004929
11.19814992	-11.93411455	3.331928841
12.10185497	-11.98217376	3.300155422
9.56669117	-11.83890453	2.82490758
10.36387114	-11.8992991	2.769349453
11.12936906	-11.86703836	2.695112273
12.06403035	-11.96266641	2.649867143
9.598864472	-11.8774477	2.255883435
10.35728005	-11.89969664	2.174762988
11.20229232	-11.95733613	2.099552173
9.607973954	-11.88871948	1.690805475
10.33166691	-11.87780175	1.584351277
11.11752379	-11.87557554	1.484458164
9.615751003	-11.90896686	1.129135714
10.30914458	-11.8552519	1.008254553
9.575623123	-11.86689441	0.566864383
10.25465115	-11.80506427	0.431319863
9.581370961	-11.9471355	4.680971534
10.32411485	-11.91851077	4.63367723
11.21124082	-11.99487869	4.648769138
12.05597495	-11.96711327	4.635011658
9.551046812	-11.90123561	4.026118698
10.30881595	-11.90084925	3.983487423
11.20006739	-12.00096556	3.984341261
12.02866681	-11.96671079	3.945304461
9.5315756	-11.86975699	3.413083952
10.31216854	-11.91017878	3.367332032
11.1628204	-11.96984774	3.332327953
12.03026152	-11.98460169	3.290643236
9.507547605	-11.83983376	2.818155806
10.26994555	-11.86475931	2.753965254
11.09021858	-11.89824055	2.69445853
11.98740379	-11.95984445	2.641083087
9.538221975	-11.8767587	2.25018404
10.2688764	-11.87147809	2.163837933
11.11012904	-11.93212221	2.089130181
11.88003933	-11.86514632	1.990839007
9.555895227	-11.89876653	1.688056867
10.25483485	-11.86277514	1.578142857
11.06814856	-11.89577448	1.482731536
9.550459493	-11.90263089	1.125751482
10.25314852	-11.8641731	1.006333256
9.48478254	-11.82838958	0.563632381
10.21120045	-11.82814627	0.431016565
9.454077794	-11.86279716	4.636540805
10.30878396	-11.97485043	4.643263089
11.14230036	-11.99467507	4.63542008
9.495197105	-11.90629059	4.017955244
10.27035909	-11.93021598	3.982751664
11.09182375	-11.95832256	3.958867189
11.95541127	-11.96703724	3.933301038
9.502418521	-11.90809541	3.415709415
10.27621809	-11.94250134	3.367541125
11.07209002	-11.94582568	3.316167943
11.96708809	-11.99504337	3.283414144
9.448487886	-11.8405123	2.811404268
10.22450377	-11.88575778	2.751545069
11.02684477	-11.90325968	2.687921331
11.91299933	-11.95876488	2.632761325
9.49001532	-11.8912752	2.247407418
10.18784843	-11.85109314	2.154415154
11.03035304	-11.91955886	2.080995815
11.85899188	-11.91702284	1.993429424
9.492686088	-11.89462211	1.683329384
10.22746889	-11.90474688	1.579544758
10.97277762	-11.86606389	1.474825219
9.472862646	-11.88041066	1.120895968
10.22385434	-11.90390097	1.007037665
9.434125903	-11.83945784	0.562777948
10.15794023	-11.83969273	0.43029967
9.409920123	-11.88199934	4.632740887
10.19029024	-11.91091847	4.60632919
10.98013344	-11.89306824	4.583113428
11.99797052	-12.05659007	4.641066059
9.449616462	-11.92399903	4.014128627
10.19400506	-11.91525984	3.967299753
11.05376671	-11.99086635	3.95839536
11.82736525	-11.91173302	3.903178996
9.385204792	-11.83550541	3.386612574
10.21029456	-11.93978409	3.357925944
10.9935619	-11.93433304	3.303599229
11.88875699	-11.98987439	3.27199938
9.398677757	-11.85249488	2.807389776
10.18671041	-11.91557307	2.751199362
10.95485831	-11.89856666	2.679259584
11.87625455	-11.99525725	2.632761325
10.13985951	-11.86873605	2.151957058
10.96888853	-11.92633133	2.07629301
11.80840917	-11.93922868	1.991074327
9.375243322	-11.82167117	1.668926876
10.14179714	-11.87855964	1.571934437
10.88106402	-11.83954724	1.467373447
9.414073136	-11.88127713	1.118247495
10.16137036	-11.90484969	1.004475976
9.380387874	-11.84640923	0.561737728
10.1150836	-11.86319458	0.430023939
9.346808064	-11.87699451	4.619587333
10.11578945	-11.89753801	4.589130628
10.90976717	-11.88983297	4.568946598
11.87815992	-12.00966084	4.608951553
9.385471486	-11.91798971	4.002393663
10.15426158	-11.94278614	3.966073329
10.93946338	-11.94017254	3.930562612
11.77571333	-11.93271037	3.898196287
9.330732237	-11.84125036	3.380049151
10.10078901	-11.88535872	3.333888582
10.9430012	-11.95282686	3.299409737
11.78300586	-11.956367	3.252975007
9.344014296	-11.85810609	2.801915448
10.07868079	-11.86270109	2.731839534
10.87101672	-11.88044312	2.667655991
11.80058938	-11.99219793	2.624131288
10.09442259	-11.88921721	2.150044944
10.90681748	-11.93210634	2.071463364
11.76754825	-11.97115155	1.990367893
9.339545622	-11.85115835	1.669036787
10.09693879	-11.89975487	1.570632553
10.83461562	-11.8618445	1.466010289
9.353516393	-11.87954498	1.115378365
10.07831939	-11.8811737	0.999864722
9.337202167	-11.86649288	0.561329079
10.04568237	-11.85527679	0.428617746
9.220781036	-11.79110867	4.575157077
10.05694886	-11.90213438	4.578981147
10.87064515	-11.92040455	4.567857025
11.72696486	-11.92977549	4.564465031
9.29582992	-11.87895762	3.979688591
10.07752881	-11.92649025	3.950375612
10.82623005	-11.88960945	3.902965662
11.73700278	-11.96669587	3.897517031
9.288343593	-11.86213787	3.377861421
10.05481242	-11.90508544	3.330753377
10.8706681	-11.94720518	3.288636319
11.72085198	-11.96651122	3.245936176
9.289406046	-11.86349333	2.796441356
9.999665704	-11.84314392	2.720257876
10.79336447	-11.86848706	2.65752344
11.65389745	-11.91602998	2.599628296
10.04512227	-11.90498733	2.147313856
10.80479701	-11.89356323	2.059007662
11.68149368	-11.95676499	1.982007983
9.261471323	-11.82654374	1.661560696
9.981490389	-11.83711747	1.558315849
10.78143903	-11.87659446	1.463738398
9.295517317	-11.88069404	1.112803444
10.0019422	-11.86473146	0.99589398
10.73749741	-11.83648961	0.873899191
9.276746297	-11.86438182	0.559880268
9.975781372	-11.84628052	0.427183957
9.92678344	-11.80397491	-0.698474851
9.234441419	-11.88352856	4.600002681
10.01113157	-11.92191143	4.574752078
10.81205382	-11.92945937	4.558594463
11.62761153	-11.90152114	4.539984214
9.222541848	-11.86009587	3.9638719
9.98353638	-11.88904959	3.927810485
10.77405282	-11.9054746	3.897304651
11.63360546	-11.93429612	3.875321693
9.237526268	-11.87209545	3.372610966
9.988692248	-11.9006719	3.320929339
10.78861323	-11.93035119	3.274870506
11.60670093	-11.92292261	3.22443845
9.225191347	-11.85624261	2.788047355
9.924664577	-11.82774106	2.709713575
10.73837912	-11.881051	2.652947471
11.57940726	-11.91275997	2.591152514
9.955720853	-11.87274579	2.135979199
10.75695667	-11.91414037	2.056846875
11.62815303	-11.97544809	1.979182126
9.206222167	-11.83058433	1.658152502
9.940654548	-11.86234603	1.557614899
10.70025494	-11.86007543	1.457649782
9.962290012	-11.89153656	0.995573784
10.69645257	-11.86418413	0.873517005
9.168568473	-11.80045947	0.555533778
9.94965493	-11.88909464	0.42762512
9.862007441	-11.78937832	-0.137891281
9.864257131	-11.80294713	-0.696620014
9.131893604	-11.82627034	4.566972171
9.906274134	-11.8708029	4.543456778
10.76960817	-11.95614006	4.556142566
11.59641922	-11.94267522	4.542089927
9.195571715	-11.90057663	3.967953628
9.937075955	-11.90771368	3.923886116
10.71083296	-11.90884953	3.887633918
11.58541445	-11.95803921	3.871471471
9.170023353	-11.86023881	3.361234823
9.944618101	-11.92224896	3.318420938
10.68318473	-11.88686878	3.253922572
11.5598278	-11.94789178	3.221584817
9.173738609	-11.86504332	2.783485454
9.873191495	-11.83997961	2.705565092
10.68012171	-11.88972021	2.647554205
11.52701563	-11.93188515	2.587608183
9.906565393	-11.88801355	2.133247877
11.54308748	-11.96104734	1.970939996
9.142522419	-11.82338984	1.653205078
9.86855817	-11.84997228	1.552007294
10.65783578	-11.8861743	1.456831888
9.904689617	-11.89673534	0.993460204
10.6360157	-11.87017312	0.871551363
9.137818428	-11.83565169	0.555868101
9.853049055	-11.84731988	0.425033272
9.806298872	-11.80702641	-0.695081797
9.07752147	-11.83071019	4.557910833
9.869808408	-11.90113919	4.543456778
10.70207224	-11.95471412	4.543065785
11.55838524	-11.97680838	4.541563499
9.116031124	-11.87274677	3.949330987
9.865221967	-11.89560947	3.90990549
10.65352204	-11.91846825	3.88008606
11.5243517	-11.96826782	3.86331827
9.119325973	-11.86974557	3.355984132
9.891768178	-11.9331278	3.312986425
10.6473191	-11.92031935	3.254122129
11.49657913	-11.95570248	3.214165468
9.12052147	-11.87130074	2.778376142
9.812310345	-11.84063686	2.698823568
10.6376819	-11.91580647	2.6460834
11.44655834	-11.92157904	2.577745283
9.808125894	-11.84357952	2.119864726
10.58264358	-11.86665757	2.037400741
11.46578009	-11.95412153	1.963992956
9.101967293	-11.84586622	1.652435581
9.839133895	-11.88862405	1.553108787
10.64715871	-11.94781193	1.46037598
9.814070112	-11.86171112	0.988016452
10.5782987	-11.8788859	0.869804113
9.835124113	-11.8998379	0.425832898
9.731874417	-11.79082881	-0.692367342
9.040022571	-11.85698358	4.557326231
9.812502902	-11.90618985	4.533870446
10.59179545	-11.90482345	4.511736153
11.49086746	-11.98018557	4.529454696
9.054344141	-11.86760306	3.938361349
9.813882387	-11.90786411	3.904018933
10.57301962	-11.9016941	3.864046927
11.43774479	-11.95149508	3.846558637
9.068064854	-11.87827687	3.350514809
9.822779151	-11.92417032	3.302117399
10.55475274	-11.88990625	3.236964574
11.45034975	-11.98098168	3.211502095
9.10255298	-11.92345292	2.784032862
9.769050173	-11.86232179	2.69692218
10.58208615	-11.92698592	2.641343878
11.35672453	-11.90088556	2.565724935
9.766707476	-11.86749544	2.118772291
10.50408152	-11.85156089	2.029266375
11.36258808	-11.91952015	1.952571634
9.000439861	-11.78841531	1.640561741
9.738148696	-11.84037142	1.542894935
10.51141296	-11.86859386	1.446744636
9.765590553	-11.8771183	0.986799623
10.51996657	-11.88660887	0.868002264
9.716089618	-11.8295352	0.422248453
9.663344572	-11.78123934	-0.690060046
8.989743344	-11.86636751	4.550311002
9.760123033	-11.91693977	4.526540029
10.55331026	-11.93510062	4.510918855
11.44607096	-12.00700315	4.526296125
8.977002473	-11.84138898	3.920503797
9.726933479	-11.87641578	3.883906656
10.51716011	-11.91222179	3.856970665
11.38088583	-11.96535632	3.839764184
8.992658495	-11.85473242	3.336075704
9.766946938	-11.93079218	3.295637659
10.47090103	-11.86859127	3.222400775
11.32834808	-11.92636592	3.187531254
9.000565674	-11.86515641	2.763960639
9.690815834	-11.84116778	2.685340758
10.47497669	-11.87947825	2.623693512
11.30112096	-11.91559825	2.561409797
9.713946939	-11.87746592	2.115221525
10.43489119	-11.84651603	2.022911329
11.31503821	-11.94278971	1.950687769
8.948612103	-11.79538432	1.637703221
9.689812942	-11.85555448	1.540992354
10.43613108	-11.85668241	1.44138296
11.20665411	-11.83997688	1.333154999
9.695639912	-11.86606496	0.983405257
10.46432568	-11.8970852	0.866418807
9.6784874	-11.85773861	0.422193289
8.938342451	-11.87402638	4.542711171
9.718671222	-11.94087432	4.524284588
10.49060359	-11.93778806	4.499749419
11.39060187	-12.02245391	4.518925654
8.952848995	-11.88509273	3.925861063
9.694734929	-11.91146535	3.885623509
10.47415513	-11.93712717	3.85461199
11.32538776	-11.98039728	3.833422726
8.960358094	-11.88772097	3.337607305
9.706846954	-11.93187426	3.287694981
10.42151982	-11.88592404	3.218410603
11.28294364	-11.95178445	3.185058137
8.966489397	-11.89585504	2.76469044
9.659413506	-11.87695589	2.686723586
10.4761941	-11.95459316	2.633172557
11.19809404	-11.8797529	2.54630741
9.669963956	-11.89798702	2.113582873
10.38281738	-11.86056192	2.019861001
11.2654103	-11.96371137	1.948450569
8.902210655	-11.80929051	1.635834258
9.644612806	-11.87441503	1.539590454
10.38462524	-11.87140433	1.439292745
11.18393548	-11.88882116	1.334785067
9.661706624	-11.89885407	0.983661438
10.41134744	-11.91033872	0.865053742
9.556920521	-11.798392	-0.687617031
8.870366565	-11.85927306	4.526634129
9.637947	-11.91617826	4.503702867
10.44949855	-11.96484384	4.497842072
11.28620451	-11.98570249	4.492075906
8.884477326	-11.86992916	3.91183013
9.597790379	-11.86652942	3.861341531
10.3902203	-11.91500599	3.837157603
11.24056038	-11.96397753	3.817116089
8.909221543	-11.895629	3.332137982
9.63269164	-11.91520953	3.274944595
10.36440524	-11.89419985	3.212026468
11.24353589	-11.98348013	3.184297105
8.843898679	-11.80841074	2.73804907
10.38245032	-11.92120959	2.618790672
11.14943514	-11.90107372	2.543533411
9.587978881	-11.87133953	2.103613641
10.3633077	-11.91181646	2.023165483
11.14383434	-11.90758481	1.933732394
8.846870301	-11.81108902	1.632316034
9.587515506	-11.87839841	1.536285973
10.34554193	-11.90020163	1.438929276
11.13719763	-11.91215661	1.333562457
9.593194952	-11.88883097	0.980395163
10.32368021	-11.88342932	0.860794811
9.545325133	-11.8421873	0.419546307
9.466807881	-11.7607325	-0.683726337
8.826526118	-11.87645366	4.522834216
9.585114791	-11.92549986	4.496090638
10.38877541	-11.96923372	4.487489935
11.19400653	-11.96110378	4.469964016
8.825514476	-11.86687166	3.901880685
9.54433329	-11.87476093	3.854473882
10.32688669	-11.91598288	3.827250836
11.1745528	-11.96708241	3.807150906
8.795788953	-11.81957568	3.303259771
9.541581812	-11.87685551	3.256341747
10.30156474	-11.89557114	3.203846804
11.12101732	-11.92601399	3.159945985
8.774758419	-11.79131629	2.727830448
10.32645865	-11.93062797	2.613887833
11.07718615	-11.89689812	2.535365905
9.527330289	-11.87056822	2.098287844
10.27286846	-11.88127828	2.012616414
11.0720812	-11.90390659	1.927609685
8.781515304	-11.79910615	1.626928848
9.528616644	-11.87981464	1.532681083
10.28814995	-11.90777121	1.436021284
11.02461429	-11.86449491	1.324434124
9.488002987	-11.83256435	0.973350251
10.27803758	-11.90446505	0.860030382
9.478326674	-11.83318734	0.418195248
10.20639117	-11.83149541	0.282291295
9.415705226	-11.7709991	-0.682640579
8.811635263	-11.93271025	4.533942133
9.486810332	-11.87763544	4.467050779
10.26779143	-11.90342085	4.450984234
11.0922098	-11.92545679	4.443903911
8.782170757	-11.88456054	3.898819391
9.503017332	-11.8979271	3.852511698
10.29027975	-11.94760904	3.827250835
11.04370107	-11.89993015	3.774990624
8.753103615	-11.83787523	3.300853175
9.497167608	-11.89613787	3.25362449
10.24648425	-11.90558186	3.198061338
11.06702597	-11.94135522	3.154999752
8.736788878	-11.81580983	2.72728304
10.23833955	-11.90241924	2.600813435
11.03056811	-11.91994808	2.533054198
9.466776989	-11.86953764	2.092961812
10.2021073	-11.87286735	2.005880135
10.99708557	-11.89625448	1.920898202
8.745865239	-11.82679059	1.627038758
9.444992755	-11.84985989	1.525070762
10.19707416	-11.87581204	1.428387717
10.97937277	-11.88874414	1.323374592
9.423049332	-11.82571633	0.970404173
10.18880054	-11.87456038	0.855607658
9.411474049	-11.82388713	0.41684419
10.16223491	-11.85364394	0.282074543
9.378926675	-11.79904806	-0.682595339
8.768196017	-11.95043565	4.530434519
9.425870726	-11.87587364	4.455491293
10.20179149	-11.90053338	4.43817973
11.00056203	-11.89992451	4.421792495
8.682720332	-11.82571434	3.870757523
9.446580772	-11.90196745	3.844417625
10.15752427	-11.86690675	3.791398403
10.97544279	-11.89938923	3.764119453
8.712122353	-11.8583827	3.29910318
9.393770463	-11.84094698	3.230632117
10.17105707	-11.89153719	3.185891499
11.01105001	-11.95431138	3.149482509
8.69875055	-11.84018146	2.726735395
10.14600326	-11.86853338	2.586595105
10.97856276	-11.93700712	2.529509867
9.413088154	-11.876787	2.089138055
10.15081917	-11.88676203	2.002956885
10.94441163	-11.91238612	1.918072226
8.69365068	-11.83194083	1.624070328
9.367203361	-11.82652379	1.518361664
10.13473444	-11.87673854	1.424752668
10.90712795	-11.8834553	1.319054806
8.638119151	-11.76712015	1.076828227
9.433186959	-11.91324788	0.975207532
10.14066015	-11.89208683	0.854624836
9.355311082	-11.82761712	0.415961862
10.06032982	-11.80789765	0.280250164
9.324726331	-11.80503295	-0.681283322
8.660508528	-11.87991009	4.493604095
10.11905925	-11.87757688	4.418020006
10.90591207	-11.87038971	4.398364533
8.635001824	-11.83667438	3.865655366
9.345183128	-11.84868446	3.817928128
10.15507114	-11.93798468	3.80413544
10.96455276	-11.96100695	3.772952146
8.671098034	-11.87875013	3.29735295
9.348317519	-11.85819159	3.227496912
10.16118159	-11.95404311	3.19427072
10.89411231	-11.90041598	3.126463194
8.646733125	-11.84537106	2.721808711
10.09421334	-11.88155983	2.582672879
10.8885592	-11.91228863	2.517181242
9.363122379	-11.88848921	2.086133743
10.03728564	-11.827098	1.98770501
10.8870561	-11.92317441	1.914422157
8.643829731	-11.84009341	1.62154166
9.312414605	-11.83175037	1.515357589
10.06604417	-11.8698002	1.420208887
10.85181086	-11.89624534	1.316772782
8.59668808	-11.78631458	1.076166139
9.334883158	-11.8637051	0.968803073
10.10348222	-11.92238022	0.854570238
9.296741923	-11.8279703	0.414969236
10.0666982	-11.88906837	0.281442346
9.939429542	-11.75872155	-0.846525604
8.564555848	-11.82432682	4.462619693
9.269966934	-11.8277661	4.416019667
10.07573276	-11.90048837	4.415023087
10.91367718	-11.95223744	4.416264521
8.579920799	-11.83727482	3.857236805
9.297425747	-11.86280252	3.813267764
10.03621057	-11.87186426	3.773236389
10.88057597	-11.94274879	3.756645508
8.61800006	-11.88239027	3.291008395
9.300435461	-11.87218907	3.223525337
10.07260694	-11.92377855	3.177911153
10.82782043	-11.90110516	3.117902061
8.560129619	-11.80259862	2.705933371
9.996614576	-11.84010678	2.566983507
10.80612017	-11.89517578	2.506547775
9.318667799	-11.90701701	2.084358241
10.01054595	-11.86920926	1.989611405
10.79970655	-11.90062996	1.905473474
8.540934759	-11.77483519	1.609008233
9.255230134	-11.83361732	1.511952971
9.97823936	-11.83970678	1.412938789
10.79718803	-11.90954568	1.314572178
8.551124611	-11.79971276	1.074988948
9.311965321	-11.90958428	0.970212067
10.03919892	-11.92048055	0.852222352
9.193957475	-11.77135399	0.411991388
9.978675671	-11.85869365	0.279997291
9.24938412	-11.84743297	-0.134841178
9.902665824	-11.78839563	-0.846470709
8.486902104	-11.79310626	4.44098893
9.224793132	-11.84479678	4.411790599
10.03050266	-11.92103675	4.411208867
10.83740923	-11.94208522	4.400207506
9.237755908	-11.86144066	3.80370217
9.989114863	-11.88995051	3.76922643
10.80204368	-11.92986465	3.742150848
9.229127253	-11.85590943	3.211402227
9.996285037	-11.90734428	3.165342441
10.75240854	-11.89130589	3.10667779
8.511233306	-11.81125706	2.70191888
9.928536744	-11.83293271	2.558812187
10.75567022	-11.9128721	2.503311718
9.218238172	-11.85344145	2.070019269
9.964526732	-11.88846297	1.987705009
10.72922559	-11.8960986	1.899468543
8.497795949	-11.79130703	1.607688944
9.201785889	-11.83996001	1.509149169
9.9457047	-11.87484479	1.413484052
10.71122936	-11.88782148	1.308540903
8.50089755	-11.80646783	1.073223338
9.229462779	-11.87899323	0.965408708
9.939775524	-11.87618446	0.846871404
9.139413607	-11.77581496	0.411164225
9.907612281	-11.84783409	0.279021861
8.408104715	-11.70471239	-0.518377771
9.854934805	-11.80492343	-0.845482523
8.445675695	-11.81208726	4.43835822
9.182538399	-11.86545441	4.408971534
9.970427599	-11.92370476	4.400856729
10.74515289	-11.91366733	4.377569186
9.167502085	-11.84602559	3.789721544
9.931414231	-11.89517751	3.76120698
10.74715008	-11.94267637	3.735809155
9.174760962	-11.86096363	3.205131582
9.949663345	-11.92591759	3.162150492
10.68503419	-11.88991812	3.097736378
9.888395794	-11.85879117	2.557831571
10.72435096	-11.95169717	2.504544581
9.138216117	-11.82522902	2.06018665
9.90896213	-11.89611344	1.983891981
10.64959505	-11.88089475	1.891815069
8.44942896	-11.80035184	1.605380099
9.130753881	-11.82324778	1.503441428
9.895210389	-11.88846231	1.411484793
10.62816604	-11.86865321	1.302835666
8.447228544	-11.80815908	1.071016297
9.872006441	-11.86900742	0.844195931
10.55529029	-11.79969761	0.715596845
9.101411132	-11.80142382	0.411081493
9.805396123	-11.7989717	0.277161362
8.399441622	-11.76868415	-0.520067265
9.794444532	-11.80590075	-0.84339642
8.380043638	-11.79662169	4.422866255
9.135564762	-11.87987989	4.403896556
9.885834431	-11.89651619	4.37960696
10.70082531	-11.93795622	4.374410616
9.13525301	-11.87947406	3.791438396
9.885565792	-11.91437308	3.75766885
10.70331717	-11.9676065	3.733317919
9.126409386	-11.87354817	3.200951149
9.874252067	-11.90961705	3.149781099
10.61515451	-11.88530032	3.088033934
9.819234469	-11.8495717	2.549333143
10.60937632	-11.89678949	2.486205663
9.830042939	-11.87526444	1.975376267
10.59459887	-11.89274959	1.888518216
8.398782548	-11.80597125	1.602631609
9.069602804	-11.81884192	1.49933586
9.78188796	-11.82591286	1.400488809
10.56321202	-11.86918985	1.299330914
8.36705203	-11.77223951	1.065425024
9.8120088	-11.87076261	0.842175691
10.56948457	-11.88876713	0.719028523
9.755780777	-11.8128097	0.276782038
8.354545916	-11.77160495	0.009825592
8.363874288	-11.79521294	-0.520103206
9.749921572	-11.8258792	-0.842682774
8.33940149	-11.81602546	4.420527846
9.083929434	-11.88803031	4.396566138
9.839486387	-11.91491906	4.375248189
10.62372087	-11.92534845	4.357826698
9.064625106	-11.86276702	3.777212674
9.776633627	-11.85692195	3.730071899
10.61607772	-11.94360272	3.715652531
9.045421058	-11.84320511	3.185274414
9.757286267	-11.84229696	3.124045005
10.55387598	-11.88991131	3.080804607
9.755240084	-11.84613162	2.542142436
10.5512006	-11.90488161	2.481120195
9.775289801	-11.88315262	1.971690434
10.50276794	-11.86274204	1.878627542
8.349328093	-11.81301468	1.600102942
9.001324823	-11.80467822	1.494028544
9.729751313	-11.83663528	1.398216919
10.51816403	-11.89183563	1.298271381
8.326869616	-11.79215205	1.064910041
9.750825683	-11.87071741	0.840046196
10.52634584	-11.9136516	0.718577017
8.369979618	-11.86110942	0.539670897
9.706807195	-11.82722672	0.276420774
8.318968086	-11.7979982	0.009826273
9.649047846	-11.77695482	-0.837083156
8.280050943	-11.80866832	4.408250722
9.006801315	-11.86235498	4.376830326
9.774197327	-11.91009337	4.362443685
10.58708459	-11.95788484	4.357826698
9.007082452	-11.86272556	3.768382842
9.746370923	-11.89437678	3.732430574
10.57164773	-11.96735617	3.712934561
9.001950154	-11.86155204	3.18276625
9.745118717	-11.90174508	3.131825558
10.51215252	-11.91634436	3.07928278
9.69823225	-11.85080933	2.53674917
10.47674848	-11.89419312	2.47218212
9.71430338	-11.88313689	1.966733474
10.45713965	-11.88447141	1.876979115
8.906180777	-11.75452016	1.484215236
9.6833109	-11.85408983	1.396762805
10.43951713	-11.87614093	1.293055141
9.672688084	-11.84952461	0.836442499
10.41460261	-11.86031486	0.713429441
9.65657375	-11.83990534	0.27602339
9.595850144	-11.78559627	-0.835600908
8.235037747	-11.82145962	4.403573902
8.963432169	-11.88074049	4.373447166
9.69382867	-11.88633736	4.342828986
10.52549441	-11.96206283	4.347560869
8.981155872	-11.90423298	3.772797639
9.704310241	-11.91744076	3.730307695
10.46612341	-11.92141421	3.688701219
8.96257326	-11.88521013	3.181721261
9.675781164	-11.89130235	3.121251931
10.47424944	-11.94706235	3.078902263
9.646889177	-11.86213809	2.532826946
10.42133548	-11.90471922	2.467712964
9.626515785	-11.84975507	1.956311363
10.39121332	-11.8828578	1.87168062
8.863493484	-11.77304494	1.483113742
9.619280857	-11.84972253	1.392764287
10.40040953	-11.90511072	1.292729222
9.596029578	-11.82951545	0.832947998
10.36043173	-11.87188911	0.712210288
9.522591842	-11.76918292	-0.832361932
8.176961901	-11.81521382	4.391881853
8.907949318	-11.88285071	4.364143119
9.583406781	-11.82482547	4.309592008
10.36808281	-11.85631562	4.297546373
8.906794906	-11.8813103	3.756854828
9.584566014	-11.84441836	3.698229191
10.4013238	-11.92117432	3.678736036
8.899679592	-11.8774343	3.172315172
9.616456169	-11.8927387	3.113870253
10.42206886	-11.96137628	3.07433631
9.597429527	-11.87556506	2.529394911
10.36919833	-11.91874444	2.464014376
9.586377504	-11.87460284	1.955548782
10.34298335	-11.90119039	1.869561198
8.836272768	-11.81213301	1.484615779
9.575378036	-11.86987625	1.39167376
10.34488725	-11.91513683	1.29036554
9.53211877	-11.82469561	0.830545514
10.3102157	-11.88776932	0.711262097
9.468294431	-11.77577615	-0.830769891
8.149344313	-11.8528534	4.396558673
8.873170598	-11.91243261	4.364989028
9.568206319	-11.88039914	4.319127318
10.39241191	-11.95797357	4.322816837
8.812969319	-11.83161049	3.732572849
9.546964529	-11.87225285	3.697757361
10.293872	-11.87134535	3.653596467
8.842758658	-11.8772289	3.164999535
9.548622401	-11.88322986	3.103695503
10.31077474	-11.90720408	3.052268048
9.552301396	-11.89418491	2.527106808
10.31384248	-11.9288263	2.459545221
9.541212328	-11.89312598	1.953769346
10.26487949	-11.88476737	1.862025501
8.782185033	-11.81523053	1.481611705
9.480988581	-11.82693502	1.383222298
10.28354182	-11.91814401	1.287268364
9.462086252	-11.81180211	0.827597051
10.24108448	-11.88151103	0.709004392
10.15264607	-11.78140023	0.134909479
9.426512965	-11.79774848	-0.830275828
8.092444928	-11.84779143	4.385451227
8.796628424	-11.8856153	4.345253215
9.476400906	-11.84058641	4.294063329
10.25351958	-11.87152315	4.280172814
8.769131387	-11.84846203	3.729384238
9.483196985	-11.86732397	3.687143204
10.24659319	-11.89032788	3.649746246
8.773709717	-11.86027617	3.153294375
9.484605154	-11.87801077	3.094717851
10.2268081	-11.88371551	3.038190146
9.505920044	-11.91109688	2.52449207
10.17609962	-11.84275693	2.435350504
9.465725958	-11.87348034	1.945762176
10.20185033	-11.88530938	1.857197883
8.738210892	-11.83171306	1.480309939
9.429767125	-11.83727285	1.381041363
10.20410896	-11.8997022	1.281889164
9.399684017	-11.80796484	0.825303762
10.18703749	-11.89238944	0.707785239
10.13076307	-11.82920178	0.135100318
9.336877953	-11.75936292	-0.825554604
8.030283927	-11.83457856	4.371420297
8.738523487	-11.88317499	4.334539163
9.434639453	-11.86282652	4.291611433
10.18940194	-11.87071467	4.268590912
8.701151052	-11.83235379	3.715894276
9.434657617	-11.88114159	3.682425853
10.18028852	-11.88693826	3.63910181
8.719907031	-11.86349858	3.147023728
9.405483518	-11.85332063	3.080752482
10.19093903	-11.91578141	3.038380404
10.11469454	-11.84461738	2.429340446
9.415703559	-11.88535951	1.942966002
10.1537385	-11.90295373	1.855078462
8.694218513	-11.84803744	1.479008174
9.39093382	-11.86302411	1.380677776
10.15914948	-11.92108977	1.280829631
8.631768102	-11.76637717	0.936524595
9.347926614	-11.81716922	0.823938696
10.13366757	-11.90380964	0.706611266
10.06590652	-11.82672098	0.134718655
7.96507383	-11.81633808	4.355636032
8.646555335	-11.83401049	4.30690931
9.35584195	-11.83811925	4.272269009
10.1316481	-11.87696537	4.259640683
8.650510283	-11.83942379	3.709762389
9.386724687	-11.8955363	3.677944299
10.13114612	-11.90328025	3.634572096
8.681738752	-11.88782596	3.146396686
9.349658149	-11.8574974	3.074368347
10.11364324	-11.89911561	3.026204843
10.06935785	-11.86504598	2.42718276
9.350359347	-11.8775607	1.936992306
10.10432963	-11.91889876	1.8527236
8.593935387	-11.78702283	1.468093371
9.301543294	-11.82446544	1.372862533
10.06197916	-11.88070892	1.273168288
8.589162438	-11.78393313	0.935820068
9.306691972	-11.83951253	0.823501913
10.07516208	-11.90891284	0.705076029
10.02505487	-11.85220298	0.134657932
7.912821112	-11.81688039	4.346866996
8.614153527	-11.86591704	4.308882938
9.309970891	-11.85465947	4.26791024
10.05897872	-11.86531186	4.244373309
8.60731279	-11.85649322	3.706819112
9.312408249	-11.8761005	3.663084384
10.07445055	-11.91050902	3.627324649
8.552187347	-11.78618267	3.112535052
9.310213948	-11.88226984	3.073370805
10.04034616	-11.88658886	3.015170594
10.01443575	-11.8739791	2.422713841
9.288818303	-11.87416039	1.931781192
10.00885156	-11.87997424	1.841891053
8.550727641	-11.8036642	1.466891741
9.256022662	-11.84117808	1.371499375
9.99531779	-11.87568376	1.269337617
8.530726603	-11.77951471	0.93338641
9.251270396	-11.84361601	0.821809261
9.993576666	-11.88624229	0.701915254
9.957761589	-11.84616141	0.134241579
9.221436816	-11.82497937	-0.273790446
7.82250514	-11.75988292	4.317051799
8.553013536	-11.85805074	4.296477543
9.281844737	-11.89378566	4.271723986
10.01009677	-11.88136078	4.23910855
8.524960144	-11.81915663	3.68695193
9.264580015	-11.89005009	3.658602829
10.03034151	-11.93241398	3.624606915
9.241810366	-11.86979859	3.062796942
10.01519336	-11.93087069	3.018595
9.918298641	-11.83346622	2.408227766
9.210950263	-11.84935024	1.923138518
9.955144385	-11.8900668	1.83871186
8.513893162	-11.82903378	1.466791605
9.205600997	-11.85142973	1.36940916
9.918551238	-11.85813031	1.264202916
8.438593513	-11.7278667	0.927238132
9.148156431	-11.78596542	0.815857677
9.923755733	-11.87698245	0.699567248
7.858362478	-11.8155772	0.527523052
9.90406195	-11.85593569	0.134007363
8.441510708	-11.76133952	-0.655631688
7.773736732	-11.76467705	4.310036569
8.48976767	-11.84680191	4.282944427
9.196372125	-11.85909758	4.249112366
9.956257542	-11.89130341	4.231738077
9.18165359	-11.8584838	3.640204784
9.928743006	-11.88538936	3.601052828
9.138793074	-11.81206894	3.040651908
9.885467247	-11.84996951	2.990438958
9.86803512	-11.84713742	2.404837454
9.149693227	-11.84536849	1.917927402
9.902105678	-11.90070594	1.835650566
8.452675961	-11.82029729	1.462485766
9.141207923	-11.84335287	1.365228967
9.881487995	-11.88773713	1.264121377
8.398509937	-11.74801817	0.926789786
9.866211402	-11.88200972	0.698077192
7.814364166	-11.82795739	0.527002942
9.795465904	-11.79932388	0.133027194
8.408560429	-11.78031955	-0.129844401
8.400747859	-11.78067576	-0.655269769
7.733933138	-11.78287524	4.307990462
8.443365437	-11.8587237	4.277869449
9.144676619	-11.86743941	4.242028951
9.908004862	-11.90770345	4.226736535
9.11737806	-11.8503971	3.629118797
9.882278245	-11.90380313	3.597429104
9.120428576	-11.86335681	3.046637168
9.879767364	-11.91727517	2.999760886
9.822191817	-11.8659395	2.402525748
9.107873885	-11.86630258	1.916783471
9.840868176	-11.90118189	1.831058504
8.382948985	-11.79912984	1.456677889
9.086041553	-11.84684518	1.362411812
9.82211922	-11.89033506	1.261187278
8.350293279	-11.75664277	0.925444866
9.772488429	-11.84287629	0.694013347
7.761042562	-11.82597643	0.525851321
9.736311144	-11.801552	0.13271491
8.370065532	-11.80279886	-0.129808519
8.348395825	-11.7835699	-0.654003051
7.688867907	-11.79292827	4.303020868
8.375361362	-11.83992587	4.261799082
9.098280566	-11.88245232	4.237397907
9.813022054	-11.86741337	4.201729285
9.045565529	-11.83199178	3.614966508
9.825876128	-11.91002331	3.590181893
9.053651644	-11.85156881	3.036462416
9.790098293	-11.88312429	2.983590146
9.767538405	-11.8738889	2.398056592
9.046763516	-11.86185289	1.911572474
9.783504441	-11.90599909	1.827172878
8.332939095	-11.8052844	1.45427463
9.015849944	-11.83030955	1.357322768
9.769151445	-11.90038324	1.259068213
8.312459142	-11.7797596	0.925252701
9.708870042	-11.83958588	0.692071726
7.711081526	-11.82880316	0.524922562
9.696888806	-11.827501	0.132671548
8.311054488	-11.80749275	-0.653912571
7.630298431	-11.78194629	4.290451917
8.324102678	-11.84437115	4.25418638
9.060618127	-11.90877783	4.236852883
9.798617015	-11.92429708	4.211205946
9.021568193	-11.87593783	3.619919893
9.75470819	-11.8979321	3.577498742
9.000067726	-11.85665431	3.030676713
9.722499086	-11.87512328	2.97407796
9.711678524	-11.88008461	2.393279398
8.226047223	-11.72223561	1.974152113
9.702335973	-11.88134694	1.818812968
8.249837506	-11.76399481	1.446063494
8.897749452	-11.7499418	1.344963626
9.717474887	-11.91176382	1.257112108
9.670607885	-11.86699343	0.691936245
7.667693982	-11.84149969	0.524439644
9.617606638	-11.80447896	0.1320817
7.611706762	-11.83264528	4.300390156
8.278937798	-11.85726709	4.2496755
9.007792144	-11.91502862	4.229224917
9.680830729	-11.85492013	4.176196083
8.95230459	-11.86012487	3.606711027
9.699703046	-11.90515004	3.57070429
8.96837052	-11.89046939	3.032272689
9.653183187	-11.86453507	2.963995001
9.660233139	-11.89141884	2.389580811
8.896244086	-11.81413276	1.89504959
9.620159409	-11.85476753	1.810217502
8.874832223	-11.79469057	1.346962885
9.639459683	-11.89042208	1.25173279
9.617808811	-11.87642246	0.690762272
7.625922732	-11.85656348	0.524068129
9.577570013	-11.82926666	0.132029651
7.525937574	-11.77857856	4.27232924
8.211898314	-11.83846401	4.233886945
8.934210253	-11.89337313	4.211789367
9.612195769	-11.84486183	4.162244308
8.905380674	-11.87354027	3.602465269
9.652713447	-11.92198305	3.566854304
8.919508008	-11.9014613	3.028083196
9.610565323	-11.88646059	2.962092658
9.604464676	-11.89716753	2.384803381
8.120122874	-11.72362723	1.965958381
8.844507058	-11.82072138	1.89174499
9.578757122	-11.87804254	1.809275511
7.505613849	-11.72916687	1.540294211
8.840393549	-11.8242551	1.347235516
9.537906777	-11.83922093	1.243256413
9.552516534	-11.87007308	0.688685169
9.511771719	-11.82197767	0.13162197
7.514875196	-11.84117786	4.286652
8.175539306	-11.86360163	4.233886943
8.889046767	-11.90916093	4.207702873
9.560671538	-11.8555222	4.15566348
8.834651011	-11.85483319	3.588549015
9.548927687	-11.86806497	3.541941233
8.83086476	-11.85882252	3.010327211
9.527935017	-11.85849096	2.947824497
8.080747935	-11.74358709	1.965139055
8.790446761	-11.82391986	1.887931962
9.540408416	-11.90504848	1.808922294
7.440269883	-11.70600222	1.53424732
8.796949221	-11.84172912	1.34614499
9.495933653	-11.86142518	1.242522918
9.495465839	-11.87357817	0.687195113
9.420505483	-11.78237452	0.130858643
7.445874481	-11.81240009	4.267944249
8.104958462	-11.83875258	4.21612476
8.767640689	-11.82199686	4.167382954
9.501931713	-11.85694348	4.145924078
8.779733137	-11.85688966	3.581001158
9.521595993	-11.90871527	3.545338459
8.764716646	-11.84568582	3.00015246
9.474969622	-11.86695276	2.942687771
8.029586384	-11.74624271	1.961451793
8.72171598	-11.80695306	1.880941529
9.463010491	-11.88299181	1.801151158
8.739287392	-11.83981702	1.34287341
9.4390221	-11.864764	1.239833318
9.427917026	-11.86354886	0.684937408
9.377471246	-11.80260792	0.130763231
7.388285682	-11.80114437	4.255667599
8.047017427	-11.83182895	4.204847085
8.744458156	-11.86665552	4.173649069
9.467914833	-11.88905793	4.146976936
8.749650709	-11.8923802	3.583595631
9.438965409	-11.8799134	3.52812583
8.71846587	-11.85909861	2.996760955
9.413500215	-11.86443314	2.934887905
7.996294611	-11.77491954	1.962134624
8.651411515	-11.78727704	1.873569746
9.374129297	-11.84577759	1.791142705
7.358271185	-11.73543446	1.532158415
8.632248012	-11.77020853	1.331968382
9.396396505	-11.88584798	1.239018285
9.326467876	-11.81009796	0.680196275
9.33502059	-11.82347375	0.130676491
7.334275228	-11.72624768	0.009414462
7.317213718	-11.70987619	-0.496666421
7.34750086	-11.81644676	4.253036889
7.983286444	-11.81591615	4.19046806
8.676748421	-11.85072929	4.158664943
9.428999784	-11.91502319	4.145924078
8.669538391	-11.85954488	3.565669415
9.38678172	-11.88893915	3.522237367
8.662390202	-11.85888738	2.989977709
9.35456654	-11.86473271	2.927848835
7.941849219	-11.77229508	1.957628035
8.606441279	-11.80174179	1.871663349
9.33405993	-11.86979799	1.790436271
7.330114184	-11.77061058	1.533807558
8.596097023	-11.79663618	1.331968382
9.314940081	-11.85740589	1.233068548
7.327028464	-11.7771044	1.023196445
9.277239948	-11.82215223	0.679248084
7.303863361	-11.74809669	0.514260662
9.288209657	-11.83868349	0.130529029
7.295099245	-11.74359668	0.009410379
9.269084371	-11.82917842	-0.419249338
7.294428385	-11.75349733	-0.497565021
7.303676438	-11.8267273	4.248652369
7.902619442	-11.77423238	4.167067275
8.62506694	-11.85628472	4.151309724
9.370335931	-11.91583542	4.136184203
8.624546886	-11.87429235	3.562131283
9.31058156	-11.86710507	3.507289713
8.586828919	-11.83147943	2.976411452
9.30722373	-11.87946627	2.92442443
7.889150313	-11.77191768	1.95353117
8.556808402	-11.80961683	1.868739981
9.29209648	-11.89133612	1.789376618
7.287171199	-11.7820538	1.532378356
8.552857247	-11.81327359	1.330877856
9.255213981	-11.85607312	1.229971372
7.23686762	-11.71214241	1.015618906
9.226797903	-11.8324395	0.678209533
7.26621126	-11.76789785	0.514149201
7.261661314	-11.77017749	0.009413782
9.190374899	-11.80313841	-0.417325151
7.248896283	-11.76050811	-0.496918013
7.268858273	-11.85152486	4.249529273
7.86220159	-11.79203613	4.164811835
8.59428794	-11.89048867	4.154033896
9.288590188	-11.88675483	4.116178502
8.548269	-11.84553431	3.545620318
9.244784926	-11.85797407	3.496192044
8.555647694	-11.86492178	2.978206984
9.228517334	-11.85373844	2.911107322
7.822804152	-11.75071224	1.946020151
8.51648039	-11.83017782	1.867850322
9.194667235	-11.84135265	1.777602079
7.24994957	-11.80266111	1.532158415
8.504361646	-11.82248016	1.328969434
9.224293542	-11.89149986	1.230704867
8.440645216	-11.74254808	0.790795533
9.175767365	-11.84173988	0.677125861
7.886615945	-11.87170212	0.393131674
8.446688476	-11.78216847	-0.797062571
7.224504076	-11.86070238	4.244852455
7.819099896	-11.80570301	4.161146391
8.557768608	-11.91679921	4.154033896
9.193502425	-11.83975864	4.090118397
9.201204024	-11.87704144	3.493474311
8.475834647	-11.83057523	2.963044517
9.19150643	-11.88121909	2.910917064
7.781252392	-11.76639419	1.944654608
8.425327132	-11.77960824	1.855775852
9.134029705	-11.83805741	1.772892239
7.155213056	-11.72896649	1.5197349
8.428095872	-11.79261106	1.322699025
9.122662816	-11.83527867	1.221983992
8.403999017	-11.76757571	0.790740935
8.407605961	-11.80396076	-0.796788091
7.155908647	-11.82962361	4.225852403
7.787062049	-11.83604792	4.16340183
8.470872232	-11.87250557	4.12951493
9.14416899	-11.8511055	4.084327683
9.124914841	-11.85350259	3.478299923
8.429270357	-11.84215303	2.959453455
9.11492461	-11.85721387	2.898170731
7.740222105	-11.78275917	1.94342556
8.382253222	-11.79569878	1.854250688
9.094647564	-11.86208414	1.772303465
7.114560142	-11.74321233	1.518745463
8.36131997	-11.77537833	1.317882613
8.367279248	-11.7924891	0.790686337
7.741285709	-11.80951554	0.389492065
8.358498188	-11.80017666	-0.264023957
